# .PCD v0.7 - Point Cloud Data file format
VERSION 0.7
FIELDS x y z
SIZE 4 4 4
TYPE F F F
COUNT 1 1 1
WIDTH 1401
HEIGHT 1
VIEWPOINT 0 0 0 1 0 0 0
POINTS 1401
DATA ascii
0.04289107 0.13602597 0.452811
0.043749861 0.13615611 0.45324421
0.044610292 0.13628648 0.45367822
0.045472372 0.13641712 0.45411307
0.046336111 0.13654801 0.45454881
0.047201511 0.13667916 0.45498535
0.048068564 0.13681053 0.4554227
0.048937295 0.13694218 0.45586091
0.049807694 0.13707407 0.45629996
0.050679773 0.13720621 0.45673987
0.051553536 0.13733862 0.45718062
0.052428987 0.13747127 0.45762223
0.053314131 0.13762484 0.45813343
0.054223049 0.13783416 0.45883021
0.055134736 0.1380441 0.4595291
0.056049202 0.1382547 0.46023011
0.056966465 0.13846594 0.4609333
0.057886537 0.13867782 0.46163863
0.058809426 0.13889034 0.46234611
0.059735149 0.13910353 0.46305576
0.060663722 0.13931738 0.46376762
0.061595146 0.13953187 0.46448162
0.062529452 0.13974702 0.46519786
0.063510306 0.14005916 0.46623689
0.064504936 0.14039309 0.46734855
0.065504313 0.14072862 0.46846548
0.066508479 0.14106575 0.46958771
0.067517467 0.14140451 0.4707154
0.068531319 0.14174491 0.47184852
0.069550037 0.14208689 0.47298694
0.07057371 0.14243059 0.47413105
0.071691424 0.14295356 0.47587195
0.072840139 0.14352526 0.47777504
0.073998086 0.14410153 0.47969341
0.075165376 0.14468248 0.48162732
0.076342106 0.14526813 0.4835768
0.077667274 0.14611979 0.48641187
0.079217717 0.1473715 0.49057865
0.080794953 0.14864485 0.49481747
0.083874777 0.15262459 0.50806546
0.084791452 0.15262462 0.50806552
0.085708119 0.15262462 0.50806552
0.086624794 0.15262464 0.50806558
0.087541468 0.15262465 0.50806564
0.088458128 0.15262465 0.50806564
0.089374803 0.15262467 0.5080657
0.090291485 0.15262468 0.50806576
0.091208145 0.15262468 0.50806576
0.09212482 0.15262471 0.50806582
0.093041494 0.15262473 0.50806588
0.093958162 0.15262473 0.50806588
0.094874837 0.15262474 0.50806594
0.095791519 0.15262476 0.508066
0.096708179 0.15262476 0.508066
0.097624861 0.15262477 0.50806606
0.098541535 0.1526248 0.50806612
0.099458203 0.1526248 0.50806612
0.10037489 0.15262483 0.50806624
0.10129155 0.15262483 0.50806624
0.10220823 0.15262485 0.5080663
0.10312491 0.15262486 0.50806636
0.10404158 0.15262486 0.50806636
0.10495825 0.15262489 0.50806642
0.10587493 0.15262491 0.50806648
0.1067916 0.15262491 0.50806648
0.10770828 0.15262492 0.50806653
-0.071040571 0.1535393 0.50805897
-0.070123926 0.15353931 0.50805902
-0.069207281 0.15353933 0.50805908
-0.068290628 0.15353933 0.50805908
-0.067373984 0.15353936 0.50805914
-0.066457339 0.15353937 0.5080592
-0.065540686 0.15353937 0.5080592
-0.064624041 0.15353939 0.50805926
-0.063707389 0.15353939 0.50805926
-0.062790744 0.1535394 0.50805932
-0.061874095 0.15353942 0.50805938
-0.060957443 0.15353942 0.50805938
-0.060040798 0.15353945 0.50805944
-0.059124149 0.15353946 0.5080595
-0.058207497 0.15353946 0.5080595
-0.057290852 0.15353948 0.50805956
-0.056374203 0.15353949 0.50805962
-0.055457555 0.15353951 0.50805968
-0.054540902 0.15353951 0.50805968
-0.053624254 0.15353954 0.50805974
-0.052707609 0.15353955 0.5080598
-0.051790953 0.15353955 0.5080598
-0.050874304 0.15353957 0.50805986
-0.049957655 0.15353958 0.50805992
-0.049041003 0.15353958 0.50805992
-0.048124354 0.1535396 0.50805998
-0.047207698 0.1535396 0.50805998
-0.046276253 0.15349054 0.50789762
-0.044359237 0.15010448 0.49669322
-0.043151315 0.14902773 0.4931303
-0.041995447 0.1480892 0.49002469
-0.040854037 0.14716239 0.48695788
-0.039756343 0.14635576 0.48428878
-0.038748547 0.14585128 0.48261943
-0.037747677 0.14535025 0.48096153
-0.036753658 0.14485265 0.47931501
-0.035766426 0.14435846 0.47767973
-0.0347859 0.14386761 0.47605553
-0.033812027 0.14338012 0.47444242
-0.032881889 0.14305757 0.47337511
-0.031957962 0.14274555 0.47234267
-0.031038055 0.14243491 0.47131473
-0.030122144 0.14212561 0.47029126
-0.029210201 0.14181764 0.4692722
-0.028302202 0.14151101 0.46825755
-0.027398119 0.14120568 0.46724725
-0.026497932 0.1409017 0.46624136
-0.025603043 0.14060687 0.46526578
-0.024727898 0.14040416 0.46459502
-0.023855275 0.14020205 0.46392623
-0.022985155 0.14000049 0.46325928
-0.022117538 0.13979954 0.4625943
-0.021252405 0.13959913 0.46193117
-0.020389749 0.1393993 0.46126997
-0.019529562 0.13920006 0.46061069
-0.018671827 0.13900138 0.45995325
-0.01781654 0.13880327 0.45929772
-0.016963687 0.13860574 0.45864406
-0.016113257 0.13840874 0.4579922
-0.015272198 0.13827531 0.45755067
-0.014433316 0.13814746 0.4571276
-0.013595984 0.13801984 0.45670533
-0.012760197 0.13789245 0.45628381
-0.011925953 0.13776532 0.45586312
-0.011093244 0.13763839 0.45544314
-0.010262068 0.13751172 0.45502397
-0.0094324211 0.13738526 0.45460555
-0.0086042983 0.13725905 0.4541879
-0.0077776965 0.13713306 0.45377102
-0.0069526099 0.13700731 0.4533549
-0.0061290353 0.13688178 0.45293954
-0.0053069685 0.13675649 0.45252496
-0.004487983 0.13667947 0.45227009
-0.0036700747 0.13660835 0.45203471
-0.0028530175 0.13653727 0.45179954
-0.0020368099 0.13646626 0.45156458
-0.001221451 0.13639535 0.45132995
-0.00040693881 0.1363245 0.45109549
0.00040672754 0.13625373 0.4508613
0.0012195494 0.13618302 0.45062733
0.0020315284 0.13611239 0.45039365
0.0028426654 0.13604185 0.45016018
0.0036529619 0.13597135 0.44992694
0.0044624191 0.13590094 0.44969395
0.0052710385 0.13583061 0.44946119
0.0060788216 0.13576035 0.44922873
0.0068871076 0.13571653 0.44908372
0.0076960567 0.13569364 0.44900796
0.0085047344 0.13567075 0.44893226
0.0093131373 0.13564788 0.44885653
0.010121268 0.13562499 0.44878083
0.010929127 0.13560213 0.4487052
0.011736713 0.13557927 0.44862956
0.012544027 0.13555641 0.44855392
0.013351069 0.13553359 0.44847834
0.014157838 0.13551074 0.44840276
0.014964336 0.13548791 0.44832721
0.015770564 0.1354651 0.44825172
0.016576517 0.13544229 0.44817623
0.017382201 0.13541947 0.44810078
0.018187614 0.13539667 0.44802535
0.018996602 0.13540131 0.44804066
0.019808332 0.13542432 0.44811678
0.020620337 0.13544731 0.44819286
0.02143262 0.13547033 0.44826904
0.022245176 0.13549335 0.44834521
0.02305801 0.13551638 0.44842142
0.02387112 0.13553941 0.44849762
0.024684507 0.13556245 0.44857389
0.02549817 0.13558552 0.44865018
0.026312109 0.13560855 0.44872645
0.027126327 0.13563164 0.4488028
0.027940821 0.1356547 0.44887915
0.02875559 0.13567778 0.44895551
0.029570639 0.13570088 0.44903192
0.030385967 0.13572398 0.44910839
0.03121005 0.13578399 0.44930694
0.032037683 0.13585599 0.4495452
0.032866199 0.13592809 0.4497838
0.033695586 0.13600026 0.45002258
0.03452586 0.1360725 0.45026162
0.03535701 0.13614482 0.45050091
0.036189049 0.13621721 0.45074046
0.037021972 0.13628967 0.45098025
0.037855782 0.13636222 0.4512203
0.038690481 0.13643485 0.45146063
0.039526071 0.13650757 0.45170125
0.040362552 0.13658035 0.45194209
0.041199923 0.1366532 0.45218316
0.042038187 0.13672614 0.4524245
0.042891085 0.13684298 0.45281115
0.043749876 0.1369739 0.45324436
0.044610307 0.13710506 0.45367837
0.045472387 0.13723648 0.45411322
0.046336126 0.13736817 0.45454895
0.047201525 0.13750009 0.4549855
0.048068583 0.13763227 0.45542285
0.04893731 0.13776469 0.45586106
0.049807709 0.13789737 0.45630011
0.050679792 0.13803032 0.45674002
0.051553551 0.13816352 0.45718077
0.052429002 0.13829698 0.45762238
0.053314146 0.13845147 0.45813358
0.054223064 0.13866204 0.45883036
0.055134751 0.13887325 0.45952925
0.05604922 0.1390851 0.46023026
0.056966484 0.1392976 0.46093345
0.057886556 0.13951077 0.46163878
0.058809444 0.13972457 0.46234626
0.059735168 0.13993903 0.46305591
0.060663741 0.14015415 0.46376777
0.061595172 0.14036995 0.4644818
0.062529467 0.14058639 0.46519801
0.063510329 0.1409004 0.46623707
0.064504959 0.14123635 0.46734869
0.065504335 0.14157389 0.46846563
0.066508502 0.14191304 0.46958789
0.067517489 0.14225383 0.47071555
0.068531349 0.14259627 0.4718487
0.069550067 0.14294031 0.47298712
0.070573732 0.14328606 0.4741312
0.071691453 0.14381219 0.47587213
0.072840169 0.14438732 0.47777522
0.073998116 0.14496706 0.47969359
0.075165406 0.1455515 0.48162749
0.076342136 0.14614065 0.48357698
0.077667303 0.14699744 0.48641205
0.079217739 0.14825667 0.49057883
0.080794983 0.14953767 0.49481764
0.083874807 0.15354131 0.50806564
0.084791474 0.15354131 0.50806564
0.085708149 0.15354134 0.5080657
0.086624824 0.15354136 0.50806576
0.087541491 0.15354136 0.50806576
0.088458166 0.15354137 0.50806582
0.08937484 0.15354139 0.50806588
0.0902915 0.15354139 0.50806588
0.091208182 0.1535414 0.50806594
0.092124857 0.15354143 0.508066
0.093041517 0.15354143 0.508066
0.093958199 0.15354145 0.50806606
0.094874874 0.15354146 0.50806612
0.095791541 0.15354146 0.50806612
0.096708216 0.15354148 0.50806618
0.097624891 0.15354149 0.50806624
0.098541573 0.15354152 0.5080663
0.099458233 0.15354152 0.5080663
0.10037491 0.15354154 0.50806636
0.10129159 0.15354155 0.50806642
0.10220826 0.15354155 0.50806642
0.10312493 0.15354156 0.50806648
0.10404161 0.15354158 0.50806653
0.10495828 0.15354158 0.50806653
0.10587496 0.15354161 0.50806659
0.10679164 0.15354162 0.50806665
0.10770831 0.15354164 0.50806671
-0.071040593 0.154456 0.50805914
-0.070123948 0.15445602 0.5080592
-0.069207296 0.15445602 0.5080592
-0.068290651 0.15445605 0.50805926
-0.067373998 0.15445605 0.50805926
-0.066457354 0.15445606 0.50805932
-0.065540709 0.15445608 0.50805938
-0.064624056 0.15445608 0.50805938
-0.063707411 0.15445609 0.50805944
-0.062790766 0.15445611 0.5080595
-0.06187411 0.15445611 0.5080595
-0.060957465 0.15445614 0.50805956
-0.060040817 0.15445615 0.50805962
-0.059124172 0.15445617 0.50805968
-0.058207519 0.15445617 0.50805968
-0.057290871 0.15445618 0.50805974
-0.056374222 0.1544562 0.5080598
-0.05545757 0.1544562 0.5080598
-0.054540921 0.15445623 0.50805986
-0.053624269 0.15445623 0.50805986
-0.05270762 0.15445624 0.50805992
-0.051790971 0.15445626 0.50805998
-0.050874315 0.15445626 0.50805998
-0.049957667 0.15445627 0.50806004
-0.049041018 0.1544563 0.5080601
-0.048124366 0.1544563 0.5080601
-0.047207717 0.15445632 0.50806016
-0.046276305 0.15440708 0.50789821
-0.044359285 0.1510008 0.49669379
-0.043151338 0.14991753 0.49313053
-0.041995462 0.14897338 0.49002489
-0.040854055 0.14804104 0.48695809
-0.039756361 0.1472296 0.48428899
-0.038748566 0.14672209 0.48261964
-0.037747696 0.14621808 0.48096177
-0.036753677 0.14571752 0.47931522
-0.035766441 0.14522037 0.47767994
-0.034785919 0.1447266 0.47605577
-0.033812042 0.14423619 0.47444263
-0.032881901 0.14391169 0.47337526
-0.031957973 0.14359783 0.47234282
-0.031038065 0.14328532 0.47131488
-0.030122153 0.14297417 0.47029141
-0.02921021 0.14266436 0.46927235
-0.028302211 0.1423559 0.46825773
-0.027398126 0.14204875 0.4672474
-0.02649794 0.14174294 0.46624151
-0.02560305 0.14144637 0.46526593
-0.024727907 0.14124244 0.4645952
-0.023855282 0.14103912 0.46392637
-0.022985162 0.14083636 0.46325943
-0.022117544 0.14063419 0.46259445
-0.02125241 0.1404326 0.46193132
-0.020389756 0.14023159 0.46127012
-0.01952957 0.14003117 0.46061087
-0.018671833 0.13983129 0.4599534
-0.017816545 0.139632 0.45929787
-0.016963692 0.13943328 0.45864421
-0.016113261 0.13923511 0.45799235
-0.015272203 0.13910088 0.45755082
-0.014433321 0.13897225 0.45712775
-0.013595989 0.13884388 0.45670548
-0.012760201 0.13871573 0.45628396
-0.011925956 0.13858785 0.45586327
-0.011093248 0.13846016 0.45544329
-0.010262072 0.13833272 0.45502412
-0.0094324248 0.13820553 0.4546057
-0.0086043011 0.13807856 0.45418805
-0.0077776988 0.13795182 0.45377117
-0.0069526122 0.13782531 0.45335504
-0.0061290371 0.13769904 0.45293969
-0.0053069703 0.137573 0.45252511
-0.0044879843 0.13749552 0.45227024
-0.0036700761 0.13742396 0.45203486
-0.0028530185 0.13735247 0.45179969
-0.0020368106 0.13728103 0.45156473
-0.0012214513 0.1372097 0.4513301
-0.00040693895 0.13713843 0.45109564
0.00040672766 0.13706721 0.45086142
0.0012195498 0.13699609 0.45062748
0.0020315291 0.13692506 0.4503938
0.0028426663 0.13685408 0.45016032
0.0036529631 0.13678317 0.44992709
0.0044624205 0.13671234 0.4496941
0.0052710399 0.13664158 0.44946134
0.0060788239 0.13657092 0.44922888
0.0068871095 0.13652682 0.44908386
0.0076960591 0.13650379 0.44900808
0.0085047372 0.13648078 0.44893241
0.009313141 0.13645776 0.44885668
0.010121272 0.13643475 0.44878098
0.01092913 0.13641174 0.44870532
0.011736717 0.13638875 0.44862968
0.012544031 0.13636576 0.44855407
0.013351073 0.13634278 0.44847849
0.014157842 0.1363198 0.44840288
0.014964341 0.13629684 0.44832736
0.015770568 0.13627389 0.44825187
0.016576523 0.13625094 0.44817638
0.017382206 0.136228 0.44810092
0.01818762 0.13620506 0.44802549
0.018996608 0.13620973 0.44804081
0.019808339 0.13623287 0.44811693
0.020620342 0.13625599 0.44819301
0.021432625 0.13627914 0.44826916
0.022245184 0.13630231 0.44834536
0.023058018 0.13632548 0.44842157
0.023871128 0.13634863 0.44849777
0.024684515 0.13637182 0.44857404
0.02549818 0.13639502 0.44865033
0.026312117 0.13641821 0.44872659
0.027126336 0.13644142 0.44880295
0.02794083 0.13646463 0.4488793
0.0287556 0.13648784 0.44895566
0.029570648 0.13651107 0.44903207
0.030385975 0.13653432 0.44910851
0.031210061 0.13659468 0.44930708
0.032037694 0.13666712 0.44954535
0.032866206 0.13673964 0.44978392
0.033695597 0.13681224 0.45002273
0.034525871 0.13688491 0.45026177
0.035357025 0.13695766 0.45050105
0.036189061 0.1370305 0.45074061
0.037021983 0.13710339 0.4509804
0.037855793 0.13717636 0.45122045
0.038690493 0.13724943 0.45146078
0.039526086 0.13732259 0.4517014
0.040362563 0.13739578 0.45194221
0.041199934 0.13746908 0.45218331
0.042038199 0.13754246 0.45242465
0.0428911 0.13766001 0.4528113
0.043749887 0.13779171 0.45324451
0.044610322 0.13792366 0.45367852
0.045472402 0.13805585 0.45411336
0.046336144 0.13818832 0.4545491
0.04720154 0.13832103 0.45498565
0.048068598 0.13845399 0.455423
0.048937324 0.13858722 0.45586121
0.049807727 0.13872069 0.45630026
0.050679807 0.13885443 0.45674017
0.05155357 0.13898842 0.45718092
0.05242902 0.13912268 0.45762253
0.053314164 0.13927808 0.45813373
0.054223083 0.13948992 0.45883051
0.05513477 0.13970239 0.4595294
0.056049243 0.13991551 0.46023044
0.056966502 0.14012928 0.4609336
0.057886574 0.14034371 0.46163893
0.058809463 0.14055879 0.4623464
0.059735186 0.14077453 0.46305606
0.06066376 0.14099094 0.46376792
0.06159519 0.14120802 0.46448195
0.062529497 0.14142577 0.46519819
0.063510351 0.14174165 0.46623722
0.064504981 0.14207959 0.46734884
0.065504365 0.14241916 0.46846581
0.066508524 0.14276034 0.46958804
0.067517519 0.14310317 0.47071573
0.068531364 0.14344765 0.47184885
0.06955009 0.14379373 0.47298726
0.070573762 0.14414155 0.47413138
0.071691476 0.14467081 0.47587228
0.072840191 0.14524938 0.47777537
0.073998138 0.14583258 0.47969374
0.075165428 0.14642051 0.48162764
0.076342165 0.14701319 0.48357716
0.077667326 0.14787507 0.4864122
0.079217769 0.14914183 0.49057901
0.080795012 0.15043049 0.49481782
0.083874829 0.15445802 0.50806576
0.084791504 0.15445803 0.50806582
0.085708171 0.15445803 0.50806582
0.086624846 0.15445805 0.50806588
0.087541521 0.15445808 0.50806594
0.08845818 0.15445808 0.50806594
0.089374863 0.15445809 0.508066
0.090291537 0.15445811 0.50806606
0.091208197 0.15445811 0.50806606
0.092124879 0.15445812 0.50806612
0.093041554 0.15445815 0.50806618
0.093958229 0.15445817 0.50806624
0.094874904 0.15445818 0.5080663
0.095791571 0.15445818 0.5080663
0.096708246 0.15445819 0.50806636
0.097624928 0.15445821 0.50806642
0.098541595 0.15445821 0.50806642
0.09945827 0.15445824 0.50806648
0.10037494 0.15445825 0.50806653
0.10129161 0.15445825 0.50806653
0.10220829 0.15445827 0.50806659
0.10312497 0.15445828 0.50806665
0.10404164 0.15445828 0.50806665
0.10495832 0.15445831 0.50806671
0.10587499 0.15445833 0.50806677
0.10679166 0.15445833 0.50806677
0.10770834 0.15445834 0.50806683
-0.071040615 0.15537269 0.50805926
-0.070123971 0.15537271 0.50805932
-0.069207326 0.15537274 0.50805938
-0.068290673 0.15537274 0.50805938
-0.067374021 0.15537275 0.50805944
-0.066457376 0.15537277 0.5080595
-0.065540724 0.15537277 0.5080595
-0.064624079 0.15537278 0.50805956
-0.063707434 0.1553728 0.50805962
-0.062790789 0.15537283 0.50805968
-0.061874133 0.15537283 0.50805968
-0.060957488 0.15537284 0.50805974
-0.060040839 0.15537286 0.5080598
-0.059124187 0.15537286 0.5080598
-0.058207538 0.15537287 0.50805986
-0.057290886 0.15537287 0.50805986
-0.056374237 0.1553729 0.50805992
-0.055457588 0.15537292 0.50805998
-0.054540936 0.15537292 0.50805998
-0.053624287 0.15537293 0.50806004
-0.052707639 0.15537295 0.5080601
-0.051790982 0.15537295 0.5080601
-0.050874334 0.15537296 0.50806016
-0.049957685 0.15537299 0.50806022
-0.049041033 0.15537299 0.50806022
-0.04812438 0.15537301 0.50806028
-0.047207728 0.15537301 0.50806028
-0.046276361 0.15532362 0.50789881
-0.044359334 0.15189712 0.49669433
-0.043151364 0.15080734 0.49313083
-0.041995488 0.14985758 0.49002519
-0.040854078 0.1489197 0.48695838
-0.03975638 0.14810343 0.48428923
-0.038748585 0.14759292 0.48261988
-0.037747711 0.14708591 0.48096198
-0.036753692 0.14658238 0.47931546
-0.035766456 0.14608227 0.47768015
-0.034785934 0.14558558 0.47605598
-0.033812061 0.14509226 0.47444287
-0.032881916 0.14476584 0.4733755
-0.031957988 0.1444501 0.47234306
-0.031038079 0.14413573 0.47131509
-0.030122166 0.14382274 0.47029161
-0.029210223 0.1435111 0.46927255
-0.028302224 0.14320081 0.46825793
-0.027398139 0.14289184 0.46724761
-0.026497949 0.1425842 0.46624166
-0.025603058 0.14228585 0.46526608
-0.024727914 0.14208072 0.46459535
-0.023855289 0.14187619 0.46392652
-0.02298517 0.14167222 0.46325958
-0.022117551 0.14146887 0.4625946
-0.021252418 0.14126608 0.46193147
-0.020389764 0.14106388 0.4612703
-0.019529575 0.14086226 0.46061102
-0.01867184 0.14066119 0.45995355
-0.017816551 0.14046071 0.45929801
-0.016963698 0.14026082 0.45864436
-0.016113266 0.14006147 0.45799249
-0.015272208 0.13992645 0.45755097
-0.014433325 0.13979706 0.4571279
-0.013595993 0.13966793 0.45670563
-0.012760205 0.13953902 0.45628411
-0.011925961 0.13941036 0.45586342
-0.011093251 0.13928193 0.45544344
-0.010262076 0.13915375 0.45502427
-0.0094324276 0.13902578 0.45460585
-0.0086043039 0.13889806 0.4541882
-0.0077777016 0.13877057 0.45377132
-0.0069526145 0.13864331 0.45335519
-0.0061290395 0.13851629 0.45293984
-0.0053069722 0.1383895 0.45252526
-0.0044879857 0.13831156 0.45227039
-0.0036700773 0.13823958 0.45203501
-0.0028530194 0.13816765 0.45179981
-0.0020368113 0.1380958 0.45156488
-0.0012214518 0.13802405 0.45133024
-0.00040693907 0.13795234 0.45109579
0.00040672781 0.13788073 0.45086157
0.0012195503 0.13780917 0.45062762
0.0020315298 0.13773771 0.45039394
0.0028426673 0.13766631 0.45016047
0.0036529643 0.13759498 0.44992724
0.0044624219 0.13752374 0.44969425
0.0052710418 0.13745256 0.44946149
0.0060788258 0.13738146 0.44922903
0.0068871118 0.13733712 0.44908401
0.0076960614 0.13731393 0.44900823
0.008504739 0.13729079 0.44893253
0.0093131438 0.13726763 0.44885683
0.010121275 0.13724449 0.44878113
0.010929134 0.13722135 0.44870546
0.011736721 0.13719822 0.44862983
0.012544035 0.1371751 0.44855422
0.013351078 0.13715199 0.44847864
0.014157847 0.13712886 0.44840303
0.014964346 0.13710576 0.44832751
0.015770573 0.13708268 0.44825202
0.016576529 0.1370596 0.44817653
0.017382214 0.13703652 0.44810107
0.018187625 0.13701345 0.44802564
0.018996615 0.13701813 0.44804096
0.019808345 0.1370414 0.44811705
0.02062035 0.13706468 0.44819316
0.021432633 0.13708797 0.44826931
0.022245191 0.13711128 0.44834551
0.023058025 0.13713457 0.44842172
0.023871135 0.13715787 0.44849792
0.024684522 0.13718121 0.44857419
0.025498187 0.13720453 0.44865048
0.026312126 0.13722786 0.44872674
0.027126342 0.1372512 0.44880307
0.02794084 0.13727456 0.44887945
0.028755609 0.13729791 0.4489558
0.029570658 0.13732128 0.44903222
0.030385986 0.13734466 0.44910866
0.03121007 0.13740538 0.44930723
0.032037701 0.13747825 0.4495455
0.032866217 0.1375512 0.44978407
0.033695608 0.13762423 0.45002288
0.034525879 0.13769732 0.45026189
0.035357036 0.13777052 0.4505012
0.036189072 0.13784377 0.45074075
0.037021995 0.1379171 0.45098054
0.037855808 0.13799052 0.4512206
0.038690504 0.13806401 0.45146093
0.039526097 0.13813759 0.45170155
0.040362574 0.13821124 0.45194235
0.041199949 0.13828498 0.45218346
0.042038213 0.13835879 0.45242479
0.042891115 0.13847703 0.45281145
0.043749902 0.13860951 0.45324466
0.044610336 0.13874224 0.45367867
0.045472417 0.13887522 0.45411351
0.046336159 0.13900848 0.45454925
0.047201551 0.13914196 0.45498577
0.048068613 0.13927573 0.45542315
0.048937339 0.13940974 0.45586136
0.049807742 0.13954401 0.45630041
0.050679822 0.13967854 0.45674032
0.051553585 0.13981332 0.45718107
0.052429039 0.13994838 0.45762268
0.053314183 0.14010471 0.45813388
0.054223102 0.1403178 0.45883065
0.055134788 0.14053153 0.45952955
0.056049258 0.14074592 0.46023059
0.056966521 0.14096095 0.46093374
0.057886593 0.14117666 0.46163908
0.058809482 0.14139301 0.46234655
0.059735212 0.14161004 0.46305624
0.060663778 0.14182773 0.46376806
0.061595209 0.14204609 0.4644821
0.062529512 0.14226514 0.46519834
0.063510373 0.14258289 0.46623737
0.064504996 0.14292283 0.46734899
0.06550438 0.14326443 0.46846595
0.066508546 0.14360762 0.46958819
0.067517541 0.14395249 0.47071588
0.068531387 0.14429902 0.47184899
0.069550112 0.14464717 0.47298744
0.070573784 0.14499705 0.47413152
0.071691498 0.14552945 0.47587243
0.072840221 0.14611144 0.47777554
0.073998168 0.14669812 0.47969392
0.075165458 0.14728953 0.48162782
0.076342188 0.14788572 0.48357731
0.077667356 0.14875273 0.48641238
0.079217792 0.15002699 0.49057916
0.080795042 0.1513233 0.494818
0.083874859 0.15537474 0.50806594
0.084791526 0.15537474 0.50806594
0.085708201 0.15537475 0.508066
0.086624876 0.15537478 0.50806606
0.087541535 0.15537478 0.50806606
0.088458218 0.1553748 0.50806612
0.089374892 0.15537481 0.50806618
0.090291567 0.15537483 0.50806624
0.091208234 0.15537483 0.50806624
0.092124909 0.15537484 0.5080663
0.093041584 0.15537487 0.50806636
0.093958251 0.15537487 0.50806636
0.094874926 0.15537488 0.50806642
0.095791608 0.1553749 0.50806648
0.096708268 0.1553749 0.50806648
0.09762495 0.15537491 0.50806653
0.098541625 0.15537494 0.50806659
0.099458292 0.15537494 0.50806659
0.10037497 0.15537496 0.50806665
0.10129165 0.15537497 0.50806671
0.10220832 0.15537497 0.50806671
0.10312499 0.15537499 0.50806677
0.10404167 0.155375 0.50806683
0.10495834 0.155375 0.50806683
0.10587502 0.15537503 0.50806689
0.1067917 0.15537505 0.50806695
0.10770838 0.15537506 0.50806701
-0.071040638 0.1562894 0.50805944
-0.070123993 0.15628943 0.5080595
-0.06920734 0.15628943 0.5080595
-0.068290696 0.15628944 0.50805956
-0.067374051 0.15628946 0.50805962
-0.066457406 0.15628947 0.50805968
-0.065540746 0.15628947 0.50805968
-0.064624101 0.15628949 0.50805974
-0.063707449 0.15628949 0.50805974
-0.062790804 0.15628952 0.5080598
-0.061874155 0.15628953 0.50805986
-0.060957499 0.15628953 0.50805986
-0.060040854 0.15628955 0.50805992
-0.059124205 0.15628956 0.50805998
-0.058207553 0.15628956 0.50805998
-0.057290904 0.15628959 0.50806004
-0.056374256 0.15628961 0.5080601
-0.055457603 0.15628961 0.5080601
-0.054540955 0.15628962 0.50806016
-0.053624298 0.15628962 0.50806016
-0.05270765 0.15628964 0.50806022
-0.051791001 0.15628967 0.50806028
-0.050874345 0.15628967 0.50806028
-0.049957696 0.15628968 0.50806034
-0.049041048 0.1562897 0.5080604
-0.048124392 0.1562897 0.5080604
-0.047207743 0.15628971 0.50806046
-0.046276413 0.15624017 0.5078994
-0.044359386 0.15279345 0.49669492
-0.043151386 0.15169714 0.4931311
-0.041995514 0.1507418 0.49002549
-0.0408541 0.14979838 0.48695865
-0.039756395 0.14897726 0.48428944
-0.0387486 0.14846374 0.48262009
-0.03774773 0.14795375 0.48096222
-0.03675371 0.14744723 0.47931567
-0.035766471 0.14694418 0.47768036
-0.034785949 0.14644456 0.47605619
-0.033812076 0.14594832 0.47444308
-0.032881927 0.14561996 0.47337565
-0.031957999 0.14530237 0.47234321
-0.031038091 0.14498615 0.47131526
-0.030122176 0.14467129 0.47029176
-0.029210234 0.14435783 0.46927273
-0.028302234 0.1440457 0.46825808
-0.027398149 0.1437349 0.46724775
-0.02649796 0.14342546 0.46624187
-0.025603071 0.14312536 0.46526629
-0.024727926 0.14291903 0.46459556
-0.023855301 0.14271328 0.46392673
-0.022985181 0.14250812 0.46325979
-0.022117563 0.14230356 0.46259481
-0.021252427 0.14209956 0.46193168
-0.020389771 0.14189617 0.46127048
-0.019529583 0.14169335 0.46061119
-0.018671848 0.14149112 0.45995376
-0.017816557 0.14128944 0.45929816
-0.016963704 0.14108837 0.45864451
-0.016113272 0.14088784 0.45799264
-0.015272215 0.14075203 0.45755118
-0.014433332 0.14062189 0.45712811
-0.013595998 0.14049198 0.45670581
-0.012760211 0.14036232 0.45628431
-0.011925966 0.14023291 0.45586362
-0.011093256 0.14010371 0.45544365
-0.01026208 0.13997476 0.45502445
-0.0094324322 0.13984606 0.45460606
-0.0086043086 0.13971758 0.45418841
-0.0077777044 0.13958932 0.4537715
-0.0069526169 0.13946131 0.45335534
-0.0061290413 0.13933355 0.45293999
-0.0053069736 0.13920599 0.45252538
-0.0044879871 0.1391276 0.45227054
-0.0036700785 0.13905519 0.45203516
-0.0028530203 0.13898285 0.45179996
-0.002036812 0.13891058 0.45156503
-0.0012214521 0.1388384 0.45133039
-0.00040693922 0.13876627 0.45109594
0.00040672792 0.13869423 0.45086172
0.0012195506 0.13862225 0.45062777
0.0020315303 0.13855037 0.45039409
0.0028426682 0.13847855 0.45016062
0.0036529654 0.1384068 0.44992739
0.0044624237 0.13833514 0.44969442
0.0052710441 0.13826354 0.44946167
0.0060788281 0.13819203 0.44922921
0.0068871137 0.1381474 0.44908413
0.0076960642 0.13812409 0.44900838
0.0085047418 0.1381008 0.44893268
0.0093131466 0.13807753 0.44885698
0.010121278 0.13805424 0.44878128
0.010929137 0.13803096 0.44870561
0.011736725 0.13800769 0.44862998
0.01254404 0.13798444 0.44855437
0.013351082 0.13796118 0.44847879
0.014157851 0.13793792 0.44840318
0.01496435 0.13791469 0.44832763
0.015770579 0.13789147 0.44825217
0.016576534 0.13786826 0.44817668
0.017382219 0.13784504 0.44810122
0.018187633 0.13782184 0.44802579
0.018996619 0.13782653 0.44804108
0.01980835 0.13784996 0.4481172
0.020620355 0.13787335 0.44819328
0.021432638 0.13789679 0.44826946
0.022245197 0.13792022 0.44834563
0.023058033 0.13794367 0.44842187
0.023871142 0.13796711 0.44849804
0.02468453 0.13799056 0.4485743
0.025498195 0.13801403 0.4486506
0.026312135 0.1380375 0.44872689
0.027126351 0.13806099 0.44880322
0.027940849 0.13808449 0.4488796
0.028755618 0.13810797 0.44895595
0.029570667 0.13813147 0.44903237
0.030385995 0.138155 0.44910881
0.03121008 0.13821606 0.44930735
0.032037713 0.13828938 0.44954565
0.032866228 0.13836277 0.44978422
0.03369562 0.13843621 0.450023
0.03452589 0.13850975 0.45026204
0.035357047 0.13858336 0.45050135
0.036189087 0.13865706 0.4507409
0.037022009 0.13873082 0.45098069
0.037855819 0.13880467 0.45122075
0.038690519 0.1388786 0.45146108
0.039526109 0.13895261 0.45170167
0.040362589 0.13902669 0.4519425
0.04119996 0.13910086 0.4521836
0.042038228 0.1391751 0.45242494
0.04289113 0.13929404 0.4528116
0.043749917 0.1394273 0.45324481
0.044610351 0.13956082 0.45367882
0.045472432 0.13969459 0.45411366
0.046336174 0.13982862 0.4545494
0.047201566 0.13996291 0.45498592
0.048068628 0.14009745 0.4554233
0.048937358 0.14023226 0.45586151
0.049807757 0.14036731 0.45630056
0.050679836 0.14050263 0.45674044
0.051553603 0.14063823 0.45718122
0.052429054 0.14077407 0.45762283
0.05331419 0.14093131 0.45813397
0.054223113 0.14114566 0.45883074
0.055134799 0.14136066 0.45952964
0.056049269 0.14157631 0.46023068
0.056966536 0.14179263 0.46093386
0.057886604 0.14200959 0.46163917
0.0588095 0.14222723 0.46234667
0.059735224 0.14244553 0.46305633
0.060663793 0.14266451 0.46376815
0.061595224 0.14288415 0.46448219
0.062529527 0.14310448 0.46519843
0.063510388 0.14342412 0.46623752
0.064505026 0.14376609 0.46734917
0.065504402 0.14410968 0.4684661
0.066508569 0.14445491 0.46958834
0.067517556 0.14480181 0.47071603
0.068531416 0.14515039 0.47184917
0.069550134 0.14550059 0.47298759
0.070573807 0.14585254 0.47413167
0.071691521 0.14638808 0.47587261
0.072840244 0.14697351 0.47777569
0.07399819 0.14756364 0.47969407
0.07516548 0.14815855 0.48162797
0.076342218 0.14875826 0.48357749
0.077667385 0.1496304 0.48641258
0.079217836 0.15091218 0.4905794
0.080795079 0.15221614 0.49481824
0.083874889 0.15629146 0.50806612
0.084791556 0.15629146 0.50806612
0.085708231 0.15629147 0.50806618
0.086624905 0.1562915 0.50806624
0.08754158 0.15629151 0.5080663
0.088458247 0.15629151 0.5080663
0.089374922 0.15629153 0.50806636
0.090291597 0.15629154 0.50806642
0.091208264 0.15629154 0.50806642
0.092124939 0.15629156 0.50806648
0.093041621 0.15629159 0.50806653
0.093958281 0.15629159 0.50806653
0.094874963 0.1562916 0.50806659
0.095791638 0.15629162 0.50806665
0.096708305 0.15629162 0.50806665
0.09762498 0.15629163 0.50806671
0.098541662 0.15629166 0.50806677
0.099458329 0.15629166 0.50806677
0.100375 0.15629168 0.50806683
0.10129169 0.15629169 0.50806689
0.10220835 0.15629169 0.50806689
0.10312503 0.15629171 0.50806695
0.10404171 0.15629174 0.50806701
0.10495838 0.15629174 0.50806701
0.10587506 0.15629175 0.50806707
0.10679173 0.15629177 0.50806713
0.10770842 0.15629178 0.50806719
-0.07104066 0.15720612 0.50805962
-0.070124015 0.15720613 0.50805968
-0.06920737 0.15720615 0.50805974
-0.068290718 0.15720615 0.50805974
-0.067374073 0.15720616 0.5080598
-0.066457428 0.15720619 0.50805986
-0.065540768 0.15720619 0.50805986
-0.064624123 0.15720621 0.50805992
-0.063707471 0.15720621 0.50805992
-0.062790826 0.15720622 0.50805998
-0.061874177 0.15720624 0.50806004
-0.060957521 0.15720624 0.50806004
-0.060040876 0.15720625 0.5080601
-0.059124228 0.15720628 0.50806016
-0.058207572 0.15720628 0.50806016
-0.057290923 0.1572063 0.50806022
-0.056374278 0.15720631 0.50806028
-0.055457622 0.15720631 0.50806028
-0.054540973 0.15720633 0.50806034
-0.053624317 0.15720633 0.50806034
-0.052707668 0.15720636 0.5080604
-0.05179102 0.15720637 0.50806046
-0.050874364 0.15720637 0.50806046
-0.049957722 0.1572064 0.50806057
-0.049041066 0.1572064 0.50806057
-0.048124418 0.15720643 0.50806063
-0.047207762 0.15720643 0.50806063
-0.046276469 0.15715672 0.5079
-0.044359434 0.15368976 0.49669546
-0.043151408 0.15258694 0.49313134
-0.041995533 0.15162598 0.4900257
-0.040854122 0.15067703 0.48695889
-0.03975641 0.14985108 0.48428962
-0.038748614 0.14933455 0.48262027
-0.037747741 0.14882156 0.48096237
-0.036753722 0.14831208 0.47931585
-0.035766486 0.14780608 0.47768053
-0.03478596 0.14730351 0.47605634
-0.033812087 0.14680438 0.47444323
-0.032881942 0.14647411 0.47337586
-0.031958014 0.14615464 0.47234342
-0.031038104 0.14583658 0.47131547
-0.030122191 0.14551987 0.47029197
-0.029210247 0.14520456 0.46927294
-0.028302247 0.14489061 0.46825829
-0.02739816 0.14457798 0.46724796
-0.026497971 0.14426672 0.46624205
-0.025603078 0.14396486 0.46526644
-0.024727933 0.14375731 0.46459571
-0.023855308 0.14355037 0.46392688
-0.022985188 0.14334399 0.46325994
-0.022117568 0.14313823 0.46259496
-0.021252435 0.14293304 0.46193182
-0.02038978 0.14272846 0.46127066
-0.01952959 0.14252447 0.46061137
-0.018671853 0.14232102 0.4599539
-0.017816566 0.14211819 0.45929837
-0.016963711 0.14191593 0.45864472
-0.016113279 0.14171423 0.45799285
-0.01527222 0.1415776 0.45755133
-0.014433336 0.14144669 0.45712826
-0.013596003 0.14131603 0.45670596
-0.012760215 0.14118561 0.45628446
-0.01192597 0.14105543 0.45586377
-0.01109326 0.14092548 0.4554438
-0.010262082 0.14079578 0.4550246
-0.009432435 0.14066632 0.45460621
-0.0086043114 0.14053708 0.45418856
-0.0077777072 0.14040808 0.45377165
-0.0069526196 0.14027934 0.45335555
-0.0061290441 0.14015082 0.4529402
-0.0053069759 0.14002252 0.45252559
-0.0044879885 0.13994364 0.45227069
-0.0036700796 0.13987081 0.45203531
-0.0028530213 0.13979805 0.45180011
-0.0020368127 0.13972534 0.45156518
-0.0012214526 0.13965274 0.45133054
-0.00040693936 0.13958019 0.45109609
0.00040672807 0.13950773 0.45086187
0.0012195511 0.13943534 0.45062792
0.002031531 0.13936304 0.45039424
0.0028426691 0.13929079 0.45016077
0.0036529663 0.13921861 0.44992751
0.0044624251 0.13914654 0.44969457
0.0052710455 0.13907452 0.44946182
0.0060788305 0.13900259 0.44922936
0.006887116 0.13895769 0.44908428
0.0076960665 0.13893425 0.44900852
0.0085047446 0.13891083 0.44893283
0.0093131494 0.13888741 0.4488571
0.010121282 0.13886398 0.44878143
0.010929141 0.13884057 0.44870576
0.011736728 0.13881716 0.44863012
0.012544043 0.13879377 0.44855452
0.013351086 0.13877037 0.44847891
0.014157856 0.13874699 0.44840333
0.014964355 0.13872361 0.44832778
0.015770584 0.13870026 0.44825232
0.01657654 0.13867691 0.44817683
0.017382225 0.13865356 0.44810137
0.018187637 0.13863021 0.44802591
0.018996626 0.13863495 0.44804123
0.019808358 0.13865849 0.44811735
0.020620363 0.13868204 0.44819343
0.021432646 0.13870561 0.44826961
0.022245204 0.13872918 0.44834578
0.023058042 0.13875277 0.44842201
0.02387115 0.13877635 0.44849819
0.024684537 0.13879994 0.44857445
0.025498202 0.13882355 0.44865075
0.026312141 0.13884714 0.44872701
0.027126361 0.13887078 0.44880337
0.027940858 0.13889441 0.44887975
0.028755626 0.13891803 0.44895607
0.029570678 0.13894168 0.44903252
0.030386005 0.13896532 0.44910896
0.031210089 0.13902676 0.4493075
0.032037724 0.13910051 0.4495458
0.03286624 0.13917431 0.44978437
0.033695631 0.13924821 0.45002314
0.034525901 0.13932216 0.45026219
0.035357058 0.13939622 0.4505015
0.036189094 0.13947032 0.45074102
0.037022021 0.13954453 0.45098084
0.03785583 0.13961881 0.4512209
0.03869053 0.13969319 0.45146123
0.03952612 0.13976763 0.45170182
0.0403626 0.13984214 0.45194265
0.041199975 0.13991675 0.45218375
0.04203824 0.13999142 0.45242509
0.042891137 0.14011104 0.45281169
0.043749925 0.14024509 0.45324489
0.044610359 0.14037938 0.45367891
0.045472439 0.14051394 0.45411375
0.046336181 0.14064877 0.45454949
0.047201581 0.14078385 0.45498604
0.048068639 0.14091916 0.45542338
0.048937365 0.14105476 0.4558616
0.049807768 0.14119062 0.45630065
0.050679851 0.14132674 0.45674056
0.051553618 0.14146313 0.45718136
0.052429073 0.14159977 0.45762298
0.053314209 0.14175794 0.45813411
0.054223128 0.14197354 0.45883089
0.055134818 0.14218979 0.45952979
0.056049287 0.14240672 0.46023083
0.056966554 0.14262429 0.46093401
0.057886627 0.14284255 0.46163934
0.058809519 0.14306144 0.46234682
0.059735242 0.14328103 0.46305647
0.060663816 0.1435013 0.46376833
0.061595246 0.14372224 0.46448237
0.062529549 0.14394385 0.46519858
0.06351041 0.14426537 0.46623766
0.064505041 0.14460935 0.46734932
0.065504424 0.14495495 0.46846625
0.066508591 0.14530221 0.46958852
0.067517586 0.14565115 0.47071621
0.068531439 0.14600176 0.47184932
0.069550157 0.146354 0.47298774
0.070573829 0.14670803 0.47413185
0.071691543 0.1472467 0.47587276
0.072840266 0.14783558 0.47777587
0.073998213 0.14842917 0.47969425
0.07516551 0.14902757 0.48162815
0.07634224 0.14963078 0.48357764
0.077667415 0.15050805 0.48641276
0.079217866 0.15179735 0.49057958
0.080795109 0.15310895 0.49481842
0.083874919 0.15720817 0.5080663
0.084791586 0.15720817 0.5080663
0.085708261 0.15720819 0.50806636
0.086624935 0.15720822 0.50806642
0.087541603 0.15720822 0.50806642
0.088458277 0.15720823 0.50806648
0.089374952 0.15720825 0.50806653
0.090291619 0.15720825 0.50806653
0.091208294 0.15720826 0.50806659
0.092124976 0.15720829 0.50806665
0.093041644 0.15720829 0.50806665
0.093958318 0.15720831 0.50806671
0.094874993 0.15720832 0.50806677
0.09579166 0.15720832 0.50806677
0.096708342 0.15720834 0.50806683
0.097625017 0.15720837 0.50806689
0.098541684 0.15720837 0.50806689
0.099458367 0.15720838 0.50806695
0.10037504 0.1572084 0.50806701
0.10129171 0.1572084 0.50806701
0.10220839 0.15720841 0.50806707
0.10312507 0.15720844 0.50806713
0.10404175 0.15720846 0.50806719
0.10495842 0.15720846 0.50806719
0.1058751 0.15720847 0.50806725
0.10679177 0.15720849 0.50806731
0.10770845 0.1572085 0.50806737
-0.07104069 0.15812282 0.5080598
-0.070124045 0.15812284 0.50805986
-0.069207385 0.15812284 0.50805986
-0.06829074 0.15812285 0.50805992
-0.067374088 0.15812285 0.50805992
-0.066457443 0.15812288 0.50805998
-0.065540798 0.1581229 0.50806004
-0.064624138 0.1581229 0.50806004
-0.063707493 0.15812291 0.5080601
-0.062790848 0.15812293 0.50806016
-0.061874192 0.15812293 0.50806016
-0.060957544 0.15812296 0.50806022
-0.060040895 0.15812297 0.50806028
-0.059124243 0.15812297 0.50806028
-0.058207594 0.15812299 0.50806034
-0.057290938 0.15812299 0.50806034
-0.056374289 0.158123 0.5080604
-0.05545764 0.15812303 0.50806046
-0.054540984 0.15812303 0.50806046
-0.053624336 0.15812305 0.50806051
-0.052707687 0.15812306 0.50806057
-0.051791038 0.15812308 0.50806063
-0.050874382 0.15812308 0.50806063
-0.049957734 0.15812311 0.50806069
-0.049041081 0.15812312 0.50806075
-0.048124429 0.15812312 0.50806075
-0.047207776 0.15812314 0.50806081
-0.046276525 0.15807328 0.5079006
-0.044359487 0.15458609 0.49669603
-0.043151435 0.15347674 0.49313164
-0.041995559 0.15251018 0.490026
-0.040854145 0.1515557 0.48695916
-0.039756428 0.15072492 0.48428982
-0.038748633 0.15020537 0.48262048
-0.037747759 0.14968939 0.48096257
-0.03675374 0.14917694 0.47931606
-0.035766501 0.14866799 0.47768074
-0.034785978 0.1481625 0.47605658
-0.033812102 0.14766045 0.47444344
-0.032881953 0.14732824 0.47337604
-0.031958021 0.1470069 0.47234356
-0.031038113 0.14668697 0.47131562
-0.030122202 0.14636844 0.47029215
-0.029210256 0.14605129 0.46927309
-0.028302256 0.14573549 0.46825844
-0.027398169 0.14542104 0.46724811
-0.026497982 0.145108 0.46624225
-0.025603088 0.14480436 0.46526662
-0.024727942 0.14459559 0.46459585
-0.023855316 0.14438744 0.46392703
-0.022985196 0.14417987 0.46326008
-0.022117576 0.1439729 0.46259511
-0.021252442 0.14376652 0.46193197
-0.020389786 0.14356074 0.46127081
-0.019529598 0.14335555 0.46061152
-0.018671861 0.14315093 0.45995405
-0.017816572 0.14294691 0.45929852
-0.016963717 0.14274347 0.45864487
-0.016113285 0.14254059 0.457993
-0.015272225 0.14240319 0.45755148
-0.014433341 0.1422715 0.45712841
-0.013596008 0.14214008 0.45670611
-0.012760219 0.1420089 0.45628461
-0.011925974 0.14187796 0.45586392
-0.011093264 0.14174725 0.45544395
-0.010262086 0.14161679 0.45502475
-0.0094324378 0.14148656 0.45460632
-0.0086043132 0.14135657 0.45418867
-0.0077777095 0.14122683 0.4537718
-0.006952622 0.14109734 0.4533557
-0.006129046 0.14096805 0.45294032
-0.0053069778 0.14083903 0.45252573
-0.0044879899 0.14075969 0.45227084
-0.0036700808 0.14068644 0.45203546
-0.0028530222 0.14061323 0.45180026
-0.0020368132 0.14054012 0.45156533
-0.001221453 0.14046709 0.45133069
-0.00040693948 0.14039412 0.45109624
0.00040672818 0.14032122 0.45086202
0.0012195513 0.1402484 0.45062804
0.0020315317 0.14017569 0.45039439
0.0028426698 0.14010301 0.45016089
0.0036529677 0.14003043 0.44992766
0.004462427 0.13995793 0.44969472
0.0052710474 0.13988549 0.44946197
0.0060788323 0.13981314 0.44922951
0.0068871183 0.13976799 0.44908443
0.0076960693 0.13974442 0.44900867
0.0085047474 0.13972086 0.44893298
0.0093131522 0.13969728 0.44885725
0.010121285 0.13967374 0.44878158
0.010929145 0.13965018 0.44870591
0.011736732 0.13962664 0.44863027
0.012544047 0.13960311 0.44855464
0.01335109 0.13957958 0.44847906
0.014157861 0.13955607 0.44840348
0.01496436 0.13953255 0.44832793
0.015770588 0.13950904 0.44825241
0.016576543 0.13948555 0.44817695
0.017382229 0.13946207 0.44810149
0.018187642 0.1394386 0.44802606
0.018996632 0.13944337 0.44804138
0.019808363 0.13946705 0.44811749
0.020620368 0.13949074 0.44819358
0.021432653 0.13951445 0.44826975
0.022245212 0.13953815 0.44834593
0.023058048 0.13956186 0.44842213
0.023871157 0.13958558 0.44849834
0.024684547 0.13960932 0.4485746
0.025498211 0.13963306 0.4486509
0.02631215 0.1396568 0.44872716
0.02712637 0.13968056 0.44880351
0.027940864 0.13970432 0.44887984
0.028755633 0.13972808 0.44895619
0.029570684 0.13975187 0.4490326
0.030386012 0.13977565 0.44910905
0.0312101 0.13983746 0.44930765
0.032037731 0.13991162 0.44954592
0.032866251 0.13998587 0.44978452
0.033695642 0.14006019 0.45002329
0.034525912 0.14013459 0.45026234
0.035357069 0.14020906 0.45050162
0.036189105 0.14028361 0.45074117
0.037022032 0.14035825 0.45098099
0.037855845 0.14043297 0.45122105
0.038690541 0.14050776 0.45146134
0.039526135 0.14058265 0.45170197
0.040362615 0.1406576 0.4519428
0.04119999 0.14073263 0.4521839
0.042038254 0.14080775 0.45242524
0.042891152 0.14092806 0.45281184
0.04374994 0.14106289 0.45324504
0.044610374 0.14119796 0.45367905
0.045472454 0.14133331 0.4541139
0.046336196 0.14146893 0.45454964
0.047201596 0.14160478 0.45498618
0.048068654 0.1417409 0.45542353
0.048937384 0.14187728 0.45586175
0.049807783 0.14201394 0.4563008
0.050679866 0.14215085 0.45674071
0.051553637 0.14228803 0.45718151
0.052429087 0.14242548 0.45762312
0.053314228 0.14258456 0.45813426
0.054223146 0.14280142 0.45883104
0.055134833 0.14301893 0.45952994
0.056049306 0.14323711 0.46023098
0.056966573 0.14345597 0.46093416
0.057886645 0.14367549 0.46163949
0.058809537 0.14389567 0.46234697
0.059735261 0.14411654 0.46305662
0.060663834 0.14433809 0.46376848
0.061595265 0.14456032 0.46448252
0.062529571 0.14478323 0.46519876
0.063510433 0.14510663 0.46623784
0.064505063 0.14545259 0.46734947
0.065504447 0.14580023 0.46846643
0.066508614 0.1461495 0.46958867
0.067517608 0.14650047 0.47071636
0.068531461 0.14685312 0.47184947
0.069550186 0.14720744 0.47298792
0.070573851 0.14756352 0.474132
0.071691573 0.14810534 0.47587293
0.072840296 0.14869764 0.47777602
0.073998235 0.14929469 0.4796944
0.075165533 0.14989659 0.48162833
0.076342262 0.15050332 0.48357782
0.077667445 0.15138569 0.48641294
0.079217888 0.15268253 0.49057975
0.080795139 0.15400177 0.4948186
0.083874933 0.15812488 0.50806642
0.084791616 0.15812489 0.50806648
0.085708275 0.15812489 0.50806648
0.086624958 0.15812492 0.50806653
0.087541632 0.15812494 0.50806659
0.0884583 0.15812494 0.50806659
0.089374974 0.15812495 0.50806665
0.090291649 0.15812497 0.50806671
0.091208316 0.15812497 0.50806671
0.092124999 0.158125 0.50806677
0.093041673 0.15812501 0.50806683
0.093958341 0.15812501 0.50806683
0.094875015 0.15812503 0.50806689
0.095791698 0.15812504 0.50806695
0.096708365 0.15812504 0.50806695
0.09762504 0.15812507 0.50806701
0.098541722 0.15812509 0.50806707
0.099458389 0.15812509 0.50806707
0.10037508 0.15812512 0.50806719
0.10129175 0.15812512 0.50806719
0.10220842 0.15812515 0.50806725
0.1031251 0.15812516 0.50806731
0.10404177 0.15812516 0.50806731
0.10495845 0.15812518 0.50806737
0.10587513 0.15812519 0.50806743
0.1067918 0.15812519 0.50806743
0.10770848 0.15812521 0.50806749
-0.071040705 0.15903951 0.50805992
-0.07012406 0.15903953 0.50805998
-0.069207415 0.15903956 0.50806004
-0.068290755 0.15903956 0.50806004
-0.06737411 0.15903957 0.5080601
-0.066457465 0.15903959 0.50806016
-0.065540813 0.15903959 0.50806016
-0.064624161 0.1590396 0.50806022
-0.063707508 0.1590396 0.50806022
-0.062790863 0.15903963 0.50806028
-0.061874215 0.15903965 0.50806034
-0.060957558 0.15903965 0.50806034
-0.06004091 0.15903966 0.5080604
-0.059124261 0.15903968 0.50806046
-0.058207605 0.15903968 0.50806046
-0.057290956 0.15903971 0.50806051
-0.056374308 0.15903972 0.50806057
-0.055457659 0.15903974 0.50806063
-0.054541003 0.15903974 0.50806063
-0.053624354 0.15903975 0.50806069
-0.052707706 0.15903978 0.50806075
-0.05179105 0.15903978 0.50806075
-0.050874401 0.1590398 0.50806081
-0.049957752 0.15903981 0.50806087
-0.049041096 0.15903981 0.50806087
-0.048124444 0.15903983 0.50806093
-0.047207788 0.15903983 0.50806093
-0.046276577 0.15898983 0.50790119
-0.044359535 0.15548241 0.49669656
-0.043151461 0.15436657 0.49313194
-0.041995585 0.15339439 0.4900263
-0.040854167 0.15243438 0.48695946
-0.039756447 0.15159877 0.48429006
-0.038748648 0.1510762 0.48262069
-0.037747778 0.15055722 0.48096281
-0.036753755 0.1500418 0.47931626
-0.03576652 0.1495299 0.47768098
-0.034785993 0.14902148 0.47605678
-0.033812117 0.14851652 0.47444367
-0.032881968 0.14818238 0.47337624
-0.03195804 0.14785919 0.4723438
-0.031038128 0.1475374 0.47131583
-0.030122215 0.14721702 0.47029236
-0.029210269 0.14689802 0.4692733
-0.028302267 0.1465804 0.46825865
-0.02739818 0.14626414 0.46724832
-0.02649799 0.14594924 0.4662424
-0.025603097 0.14564385 0.46526676
-0.02472795 0.14543387 0.464596
-0.023855323 0.14522451 0.46392718
-0.022985203 0.14501573 0.46326023
-0.022117583 0.14480758 0.46259525
-0.021252448 0.14459999 0.46193212
-0.020389793 0.14439303 0.46127096
-0.019529603 0.14418665 0.46061167
-0.018671867 0.14398083 0.4599542
-0.017816577 0.14377563 0.45929867
-0.016963722 0.14357102 0.45864502
-0.016113291 0.14336696 0.45799315
-0.01527223 0.14322875 0.45755163
-0.014433346 0.14309631 0.45712855
-0.013596011 0.14296412 0.45670626
-0.012760224 0.14283217 0.45628476
-0.011925978 0.14270049 0.45586407
-0.011093267 0.14256902 0.4554441
-0.01026209 0.1424378 0.4550249
-0.0094324406 0.14230682 0.45460647
-0.008604316 0.14217608 0.45418882
-0.0077777123 0.14204559 0.45377195
-0.0069526238 0.14191532 0.45335582
-0.0061290478 0.14178531 0.45294046
-0.0053069796 0.14165553 0.45252588
-0.0044879918 0.14157574 0.45227098
-0.0036700822 0.14150205 0.45203561
-0.0028530231 0.14142843 0.45180041
-0.0020368139 0.14135489 0.45156547
-0.0012214533 0.14128143 0.45133081
-0.00040693962 0.14120805 0.45109639
0.00040672833 0.14113472 0.45086217
0.0012195518 0.14106148 0.45062819
0.0020315323 0.14098835 0.45039454
0.0028426708 0.14091526 0.45016104
0.0036529689 0.14084224 0.44992781
0.0044624284 0.14076933 0.44969487
0.0052710492 0.14069647 0.44946212
0.0060788342 0.1406237 0.44922966
0.0068871207 0.14057828 0.44908458
0.0076960716 0.14055458 0.44900882
0.0085047502 0.14053087 0.44893312
0.009313155 0.14050718 0.4488574
0.010121288 0.14048347 0.4487817
0.010929149 0.14045979 0.44870606
0.011736736 0.14043611 0.44863039
0.012544051 0.14041245 0.44855478
0.013351095 0.14038879 0.44847921
0.014157866 0.14036512 0.44840363
0.014964364 0.14034148 0.44832808
0.015770592 0.14031784 0.44825256
0.016576549 0.14029421 0.4481771
0.017382234 0.14027059 0.44810164
0.01818765 0.14024699 0.44802621
0.018996639 0.14025177 0.44804153
0.019808371 0.1402756 0.44811764
0.020620376 0.14029942 0.44819373
0.021432659 0.14032325 0.44826987
0.022245219 0.14034711 0.44834608
0.023058055 0.14037097 0.44842228
0.023871165 0.14039482 0.44849849
0.024684554 0.14041869 0.44857475
0.025498221 0.14044258 0.44865105
0.026312159 0.14046645 0.44872731
0.027126379 0.14049035 0.44880366
0.027940875 0.14051425 0.44888002
0.028755642 0.14053814 0.44895634
0.029570693 0.14056206 0.44903275
0.030386021 0.14058599 0.4491092
0.031210111 0.14064816 0.4493078
0.032037742 0.14072275 0.44954607
0.032866262 0.14079744 0.44978467
0.033695653 0.14087218 0.45002344
0.034525923 0.14094701 0.45026249
0.03535708 0.14102191 0.45050177
0.03618912 0.1410969 0.45074132
0.037022043 0.14117198 0.45098114
0.037855856 0.14124712 0.4512212
0.038690552 0.14132234 0.45146149
0.039526146 0.14139766 0.45170212
0.04036263 0.14147305 0.45194295
0.041200001 0.14154851 0.45218402
0.042038266 0.14162406 0.45242536
0.042891163 0.14174509 0.45281199
0.043749955 0.14188069 0.45324519
0.044610389 0.14201656 0.4536792
0.045472469 0.14215268 0.45411405
0.046336211 0.14228907 0.45454979
0.047201611 0.14242573 0.45498633
0.048068669 0.14256263 0.45542368
0.048937399 0.14269981 0.4558619
0.049807802 0.14283724 0.45630094
0.050679881 0.14297496 0.45674086
0.051553652 0.14311294 0.45718166
0.052429106 0.14325118 0.45762327
0.053314243 0.14341119 0.45813441
0.054223165 0.1436293 0.45883119
0.055134851 0.14384808 0.45953009
0.056049325 0.14406753 0.46023113
0.056966592 0.14428765 0.46093431
0.057886664 0.14450844 0.46163964
0.058809556 0.1447299 0.46234712
0.05973528 0.14495204 0.46305677
0.060663853 0.14517488 0.46376863
0.061595287 0.14539839 0.46448267
0.062529586 0.1456226 0.4651989
0.063510455 0.14594787 0.46623799
0.064505085 0.14629585 0.46734962
0.065504469 0.14664549 0.46846658
0.066508636 0.14699678 0.46958882
0.067517631 0.14734979 0.47071651
0.068531483 0.1477045 0.47184965
