# .PCD v0.7 - Point Cloud Data file format
VERSION 0.7
FIELDS x y z rgb
SIZE 4 4 4 4
TYPE F F F U
COUNT 1 1 1 1
WIDTH 1146
HEIGHT 1
VIEWPOINT 0 0 0 1 0 0 0
POINTS 1146
DATA ascii
0.73519069 0.0057248324 0.15999997 859931
0.7349838 0.0042643026 0.16099995 925724
0.73456991 0.0029320344 0.16299993 925724
0.73436296 0.0014845803 0.16399997 925724
0.73415607 4.234165e-05 0.16499996 859931
0.73374224 -0.0012637973 0.16699994 859931
0.73353529 -0.0026929602 0.16799998 794138
0.73332834 -0.0041169077 0.16899997 859931
0.73291451 -0.00539691 0.17099994 859931
0.73270762 -0.0068077892 0.17199993 794138
0.73270762 -0.0083573833 0.17199993 794138
0.73229373 -0.0096138641 0.17399997 859931
0.73229373 -0.011158228 0.17399997 794138
0.73208678 -0.012550816 0.17499995 794138
0.73187989 -0.013938181 0.17599994 859161
0.73187989 -0.015477322 0.17599994 661782
0.73187989 -0.017016463 0.17599994 661782
0.73167294 -0.018393353 0.17699999 792854
0.73167294 -0.019929878 0.17699999 661782
0.73167294 -0.021466404 0.17699999 793366
0.73167294 -0.023002937 0.17699999 793366
0.73167294 -0.024539463 0.17699999 859159
0.73167294 -0.026075989 0.17699999 661780
0.73187989 -0.027790435 0.17599994 792852
0.73187989 -0.029329576 0.17599994 792852
0.73187989 -0.030868717 0.17599994 727059
0.73187989 -0.032407857 0.17599994 661266
0.73187989 -0.033946998 0.17599994 661266
0.73208678 -0.03567712 0.17499995 727059
0.73208678 -0.037218869 0.17499995 727059
0.73208678 -0.038760625 0.17499995 727059
0.73208678 -0.040302381 0.17499995 792339
0.73208678 -0.041844137 0.17499995 660753
0.73208678 -0.043385886 0.17499995 660753
0.73229373 -0.045134299 0.17399997 594960
0.73229373 -0.046678662 0.17399997 529167
0.73229373 -0.048223026 0.17399997 529167
0.73250067 -0.049981885 0.17299998 529167
0.73250067 -0.051528864 0.17299998 397581
0.73270762 -0.05329559 0.17199993 397581
0.73291451 -0.055067502 0.17099994 397581
0.73312145 -0.056844659 0.16999996 397581
0.73332834 -0.058627032 0.16899997 331788
0.73374224 -0.060644828 0.16699994 331788
0.73394912 -0.062440269 0.16599995 331788
0.73394912 -0.064005546 0.16599995 265995
0.73436296 -0.066046841 0.16399997 528397
0.73456991 -0.067857973 0.16299993 659983
0.73477685 -0.069674321 0.16199994 660753
0.7349838 -0.071495898 0.16099995 726546
0.73519069 -0.073322706 0.15999997 660753
0.73519069 -0.07490366 0.15999997 660753
0.73539764 -0.07673829 0.15899998 660753
0.73560452 -0.078578167 0.15799993 660753
0.73560452 -0.080164351 0.15799993 726546
0.73581147 -0.08201205 0.15699995 726546
0.73581147 -0.083600856 0.15699995 726546
0.73581147 -0.085189633 0.15699995 792339
0.73601842 -0.087047808 0.15599996 858132
0.73601842 -0.088639192 0.15599996 1121817
0.73581147 -0.089956008 0.15699995 1385505
0.73601842 -0.091822006 0.15599996 5928302
0.73401839 0.032454215 0.15799993 2832949
0.73401839 0.030868039 0.15799993 1121304
0.73401839 0.029281862 0.15799993 989718
0.73422271 0.027614459 0.15699995 858132
0.73422271 0.026025672 0.15699995 858132
0.73422271 0.02443688 0.15699995 792339
0.73422271 0.022848092 0.15699995 792339
0.73422271 0.0212593 0.15699995 792339
0.73422271 0.019670509 0.15699995 792852
0.73422271 0.018081721 0.15699995 792852
0.73422271 0.016492929 0.15699995 924438
0.73422271 0.014904138 0.15699995 924438
0.73422271 0.01331535 0.15699995 924438
0.73401839 0.011833914 0.15799993 990745
0.73401839 0.010247737 0.15799993 859931
0.73381406 0.0087741464 0.15899998 859931
0.73360974 0.007305786 0.15999997 859931
0.73340547 0.005842641 0.16099995 859931
0.73340547 0.0042643026 0.16099995 925724
0.73299682 0.0029320344 0.16299993 859931
0.7327925 0.0014845803 0.16399997 925724
0.73238385 0.00017060339 0.16599995 925724
0.73217958 -0.0012637973 0.16699994 925724
0.73197526 -0.0026929602 0.16799998 859931
0.73156661 -0.0039808005 0.16999996 859931
0.73136228 -0.00539691 0.17099994 859931
0.73115802 -0.0068077892 0.17199993 794138
0.73095369 -0.0082134381 0.17299998 794138
0.73074937 -0.0096138641 0.17399997 794138
0.73054504 -0.011009067 0.17499995 728345
0.73034072 -0.01239904 0.17599994 728345
0.73034072 -0.013938181 0.17599994 793368
0.73013639 -0.015320309 0.17699999 661782
0.72993213 -0.016697213 0.17799997 661782
0.72993213 -0.018231124 0.17799997 661782
0.72993213 -0.019765034 0.17799997 661782
0.72993213 -0.021298952 0.17799997 924440
0.72993213 -0.022832863 0.17799997 924438
0.72993213 -0.024366781 0.17799997 924438
0.72993213 -0.025900692 0.17799997 924438
0.73013639 -0.027612515 0.17699999 792852
0.73013639 -0.029149048 0.17699999 792852
0.73034072 -0.030868717 0.17599994 727059
0.73034072 -0.032407857 0.17599994 661266
0.73034072 -0.033946998 0.17599994 661266
0.73034072 -0.035486139 0.17599994 727059
0.73034072 -0.03702528 0.17599994 727059
0.73054504 -0.038760625 0.17499995 727059
0.73054504 -0.040302381 0.17499995 792339
0.73054504 -0.041844137 0.17499995 660753
0.73054504 -0.043385886 0.17499995 660753
0.73054504 -0.044927642 0.17499995 529167
0.73054504 -0.046469398 0.17499995 529167
0.73074937 -0.048223026 0.17399997 529167
0.73074937 -0.049767397 0.17399997 529167
0.73095369 -0.051528864 0.17299998 397581
0.73115802 -0.05329559 0.17199993 397581
0.73115802 -0.054845162 0.17199993 397581
0.73136228 -0.056619711 0.17099994 397581
0.73156661 -0.058399476 0.16999996 331788
0.73197526 -0.060414635 0.16799998 331788
0.73217958 -0.062207483 0.16699994 331788
0.73238385 -0.064005546 0.16599995 266248
0.73258817 -0.065808825 0.16499996 397834
0.7327925 -0.067617334 0.16399997 529420
0.73299682 -0.069431089 0.16299993 660753
0.73340547 -0.071495898 0.16099995 726546
0.73340547 -0.073074244 0.16099995 660753
0.73360974 -0.07490366 0.15999997 660753
0.73360974 -0.076484598 0.15999997 660753
0.73381406 -0.078321852 0.15899998 660753
0.73401839 -0.080164351 0.15799993 726546
0.73401839 -0.08175052 0.15799993 726546
0.73422271 -0.083600856 0.15699995 726546
0.73422271 -0.085189633 0.15699995 792339
0.73422271 -0.08677844 0.15699995 858132
0.73422271 -0.088367216 0.15699995 1056024
0.73422271 -0.089956008 0.15699995 1253919
0.73422271 -0.0915448 0.15699995 5928302
0.73243219 0.032454215 0.15799993 2767926
0.73243219 0.030868039 0.15799993 1055511
0.73243219 0.029281862 0.15799993 858132
0.73263389 0.027614459 0.15699995 858132
0.73263389 0.026025672 0.15699995 792339
0.73263389 0.02443688 0.15699995 792339
0.73263389 0.022848092 0.15699995 858132
0.73263389 0.0212593 0.15699995 858132
0.73263389 0.019670509 0.15699995 792852
0.73263389 0.018081721 0.15699995 792852
0.73263389 0.016492929 0.15699995 924438
0.73263389 0.014904138 0.15699995 924438
0.73243219 0.01342009 0.15799993 924438
0.73243219 0.011833914 0.15799993 990745
0.73243219 0.010247737 0.15799993 794138
0.73223048 0.0087741464 0.15899998 859931
0.73202878 0.007305786 0.15999997 859931
0.73182708 0.005842641 0.16099995 859931
0.73162538 0.0043847263 0.16199994 925724
0.73142374 0.0029320344 0.16299993 925724
0.73122197 0.0014845803 0.16399997 925724
0.73081863 0.00017060339 0.16599995 925724
0.73061693 -0.0012637973 0.16699994 925724
0.73041523 -0.0026929602 0.16799998 859931
0.73001182 -0.0039808005 0.16999996 859931
0.72981012 -0.00539691 0.17099994 859931
0.72960842 -0.0068077892 0.17199993 794138
0.72920501 -0.0080694929 0.17399997 794138
0.72900331 -0.0094673112 0.17499995 794138
0.72900331 -0.011009067 0.17499995 728345
0.72880161 -0.01239904 0.17599994 728345
0.72859991 -0.013783775 0.17699999 793368
0.7283982 -0.015163302 0.17799997 661782
0.7283982 -0.016697213 0.17799997 661782
0.7283982 -0.018231124 0.17799997 661782
0.7283982 -0.019765034 0.17799997 661782
0.7281965 -0.021131493 0.17899996 924440
0.7281965 -0.022662796 0.17899996 924440
0.7283982 -0.024366781 0.17799997 924440
0.7283982 -0.025900692 0.17799997 924438
0.7283982 -0.02743461 0.17799997 792852
0.7283982 -0.02896852 0.17799997 792852
0.72859991 -0.030685574 0.17699999 727059
0.72859991 -0.0322221 0.17699999 661266
0.72880161 -0.033946998 0.17599994 661266
0.72880161 -0.035486139 0.17599994 727059
0.72880161 -0.03702528 0.17599994 727059
0.72880161 -0.038564421 0.17599994 727059
0.72880161 -0.040103562 0.17599994 792339
0.72900331 -0.041844137 0.17499995 660753
0.72900331 -0.043385886 0.17499995 660753
0.72900331 -0.044927642 0.17499995 529167
0.72900331 -0.046469398 0.17499995 529167
0.72900331 -0.048011146 0.17499995 529167
0.72920501 -0.049767397 0.17399997 529167
0.72920501 -0.051311769 0.17399997 397581
0.72940671 -0.053075857 0.17299998 397581
0.72960842 -0.054845162 0.17199993 397581
0.72981012 -0.056619711 0.17099994 528397
0.72981012 -0.05817192 0.17099994 397581
0.73021352 -0.060184471 0.16899997 331788
0.73041523 -0.061974682 0.16799998 331788
0.73061693 -0.063770138 0.16699994 266248
0.73081863 -0.065570809 0.16599995 397834
0.73102027 -0.06737671 0.16499996 529420
0.73122197 -0.069187827 0.16399997 661006
0.73142374 -0.071004204 0.16299993 792592
0.73182708 -0.073074244 0.16099995 726799
0.73182708 -0.07465259 0.16099995 660753
0.73202878 -0.076484598 0.15999997 660753
0.73202878 -0.078065552 0.15999997 660753
0.73223048 -0.079905428 0.15899998 660753
0.73223048 -0.081488974 0.15899998 726546
0.73243219 -0.083336703 0.15799993 726546
0.73263389 -0.085189633 0.15699995 792339
0.73263389 -0.08677844 0.15699995 858132
0.73263389 -0.088367216 0.15699995 1056024
0.73263389 -0.089956008 0.15699995 1253919
0.73263389 -0.0915448 0.15699995 6125681
0.73084605 0.032454215 0.15799993 2702133
0.73084605 0.030868039 0.15799993 1055511
0.73084605 0.029281862 0.15799993 858132
0.73104513 0.027614459 0.15699995 858132
0.73104513 0.026025672 0.15699995 858132
0.73104513 0.02443688 0.15699995 792339
0.73104513 0.022848092 0.15699995 858132
0.73104513 0.0212593 0.15699995 858132
0.73104513 0.019670509 0.15699995 792852
0.73104513 0.018081721 0.15699995 792852
0.73104513 0.016492929 0.15699995 924438
0.73104513 0.014904138 0.15699995 924438
0.73084605 0.01342009 0.15799993 924438
0.73084605 0.011833914 0.15799993 924952
0.73084605 0.010247737 0.15799993 859929
0.73064691 0.0087741464 0.15899998 859931
0.73044783 0.007305786 0.15999997 859931
0.73044783 0.0057248324 0.15999997 859931
0.73024875 0.0042643026 0.16099995 925724
0.72985059 0.0029320344 0.16299993 925724
0.72965151 0.0014845803 0.16399997 925724
0.72925335 0.00017060339 0.16599995 925724
0.72905421 -0.0012637973 0.16699994 925724
0.72885513 -0.0026929602 0.16799998 859931
0.72845697 -0.0039808005 0.16999996 859931
0.72825789 -0.00539691 0.17099994 859931
0.72805882 -0.0068077892 0.17199993 794138
0.72766066 -0.0080694929 0.17399997 859931
0.72746152 -0.0094673112 0.17499995 794138
0.72726244 -0.010859899 0.17599994 794138
0.72726244 -0.01239904 0.17599994 794138
0.72686428 -0.013629384 0.17799997 793368
0.72686428 -0.015163302 0.17799997 661782
0.72686428 -0.016697213 0.17799997 661782
0.7266652 -0.018068887 0.17899996 661782
0.7266652 -0.01960019 0.17899996 792854
0.7266652 -0.021131493 0.17899996 924440
0.7266652 -0.022662796 0.17899996 924440
0.7266652 -0.024194092 0.17899996 924440
0.72686428 -0.025900692 0.17799997 924440
0.72686428 -0.02743461 0.17799997 792852
0.72686428 -0.02896852 0.17799997 792852
0.72706336 -0.030685574 0.17699999 727059
0.72706336 -0.0322221 0.17699999 661266
0.72706336 -0.033758625 0.17699999 661266
0.72726244 -0.035486139 0.17599994 727059
0.72726244 -0.03702528 0.17599994 792339
0.72726244 -0.038564421 0.17599994 858132
0.72726244 -0.040103562 0.17599994 792339
0.72726244 -0.041642703 0.17599994 660753
0.72746152 -0.043385886 0.17499995 594960
0.72746152 -0.044927642 0.17499995 529167
0.72746152 -0.046469398 0.17499995 594960
0.72746152 -0.048011146 0.17499995 594960
0.72746152 -0.04955291 0.17499995 529167
0.72766066 -0.051311769 0.17399997 397581
0.72766066 -0.052856125 0.17399997 528397
0.72805882 -0.054845162 0.17199993 528397
0.72805882 -0.056394763 0.17199993 528397
0.72825789 -0.05817192 0.17099994 528397
0.72845697 -0.059954293 0.16999996 462604
0.72865605 -0.061741896 0.16899997 462604
0.72885513 -0.063534729 0.16799998 332041
0.72905421 -0.065332808 0.16699994 397834
0.72925335 -0.067136087 0.16599995 529420
0.72965151 -0.069187827 0.16399997 726799
0.72985059 -0.071004204 0.16299993 792592
0.72985059 -0.072577305 0.16299993 726799
0.73004967 -0.074401505 0.16199994 726546
0.73024875 -0.076230906 0.16099995 726546
0.73024875 -0.077809237 0.16099995 660753
0.73044783 -0.079646505 0.15999997 660753
0.73044783 -0.081227444 0.15999997 726546
0.73084605 -0.083336703 0.15799993 726546
0.73084605 -0.084922872 0.15799993 792339
0.73104513 -0.08677844 0.15699995 792339
0.73104513 -0.088367216 0.15699995 1121304
0.73104513 -0.089956008 0.15699995 990747
0.73104513 -0.0915448 0.15699995 6059888
0.72925985 0.032454215 0.15799993 3031098
0.72925985 0.030868039 0.15799993 1121304
0.72925985 0.029281862 0.15799993 989718
0.72945631 0.027614459 0.15699995 858132
0.72945631 0.026025672 0.15699995 858132
0.72945631 0.02443688 0.15699995 792339
0.72945631 0.022848092 0.15699995 858132
0.72945631 0.0212593 0.15699995 858132
0.72945631 0.019670509 0.15699995 792852
0.72945631 0.018081721 0.15699995 924438
0.72945631 0.016492929 0.15699995 990231
0.72925985 0.015006267 0.15799993 924438
0.72925985 0.01342009 0.15799993 924438
0.72925985 0.011833914 0.15799993 990745
0.72925985 0.010247737 0.15799993 990747
0.72906339 0.0087741464 0.15899998 859931
0.72886688 0.007305786 0.15999997 859931
0.72886688 0.0057248324 0.15999997 859931
0.72867042 0.0042643026 0.16099995 925724
0.7282775 0.0029320344 0.16299993 925724
0.72808099 0.0014845803 0.16399997 925724
0.72768807 0.00017060339 0.16599995 925724
0.72749156 -0.0012637973 0.16699994 925724
0.7272951 -0.0026929602 0.16799998 859931
0.72690213 -0.0039808005 0.16999996 859931
0.72650921 -0.0052581951 0.17199993 859931
0.72631276 -0.0066664517 0.17299998 794138
0.72611624 -0.0080694929 0.17399997 859931
0.72591978 -0.0094673112 0.17499995 794138
0.72572333 -0.010859899 0.17599994 859931
0.72552681 -0.012247249 0.17699999 859931
0.72533035 -0.013629384 0.17799997 859161
0.72533035 -0.015163302 0.17799997 661782
0.7251339 -0.016537599 0.17899996 661782
0.7251339 -0.018068887 0.17899996 661782
0.7251339 -0.01960019 0.17899996 792854
0.7251339 -0.021131493 0.17899996 924440
0.7251339 -0.022662796 0.17899996 924440
0.7251339 -0.024194092 0.17899996 924440
0.7251339 -0.025725394 0.17899996 924440
0.7251339 -0.027256697 0.17899996 792852
0.72533035 -0.02896852 0.17799997 792852
0.72533035 -0.030502439 0.17799997 727059
0.72533035 -0.032036349 0.17799997 661266
0.72552681 -0.033758625 0.17699999 661266
0.72572333 -0.035486139 0.17599994 661266
0.72572333 -0.03702528 0.17599994 792339
0.72572333 -0.038564421 0.17599994 792339
0.72572333 -0.040103562 0.17599994 792339
0.72572333 -0.041642703 0.17599994 660753
0.72572333 -0.043181844 0.17599994 594960
0.72591978 -0.044927642 0.17499995 594960
0.72591978 -0.046469398 0.17499995 594960
0.72591978 -0.048011146 0.17499995 594960
0.72591978 -0.04955291 0.17499995 529167
0.72611624 -0.051311769 0.17399997 397581
0.72611624 -0.052856125 0.17399997 528397
0.72631276 -0.054622822 0.17299998 528397
0.72650921 -0.056394763 0.17199993 528397
0.72670567 -0.05817192 0.17099994 528397
0.72690213 -0.059954293 0.16999996 462604
0.72690213 -0.06150911 0.16999996 462857
0.7272951 -0.063534729 0.16799998 462857
0.72749156 -0.065332808 0.16699994 397834
0.72768807 -0.067136087 0.16599995 397834
0.72788453 -0.068944596 0.16499996 661006
0.72808099 -0.070758335 0.16399997 726799
0.7282775 -0.072577305 0.16299993 661006
0.7282775 -0.074150436 0.16299993 661006
0.72847396 -0.075977229 0.16199994 661006
0.72867042 -0.077809237 0.16099995 661006
0.72886688 -0.079646505 0.15999997 661006
0.72886688 -0.081227444 0.15999997 726546
0.72925985 -0.083336703 0.15799993 726546
0.72925985 -0.084922872 0.15799993 792339
0.72945631 -0.08677844 0.15699995 792339
0.72945631 -0.088367216 0.15699995 1056024
0.72945631 -0.089956008 0.15699995 990747
0.72945631 -0.0915448 0.15699995 5533544
0.72767365 0.032454215 0.15799993 3031098
0.72767365 0.030868039 0.15799993 1121304
0.72767365 0.029281862 0.15799993 989718
0.72786754 0.027614459 0.15699995 858132
0.72786754 0.026025672 0.15699995 858132
0.72786754 0.02443688 0.15699995 792339
0.72786754 0.022848092 0.15699995 858132
0.72786754 0.0212593 0.15699995 858132
0.72786754 0.019670509 0.15699995 792852
0.72786754 0.018081721 0.15699995 924438
0.72786754 0.016492929 0.15699995 990231
0.72786754 0.014904138 0.15699995 924438
0.72767365 0.01342009 0.15799993 924438
0.72767365 0.011833914 0.15799993 990747
0.72767365 0.010247737 0.15799993 990747
0.72747982 0.0087741464 0.15899998 859931
0.72728592 0.007305786 0.15999997 859931
0.72728592 0.0057248324 0.15999997 859931
0.72709209 0.0042643026 0.16099995 925724
0.72670436 0.0029320344 0.16299993 925724
0.72651052 0.0014845803 0.16399997 991517
0.7261228 0.00017060339 0.16599995 925724
0.7259289 -0.0012637973 0.16699994 925724
0.72573507 -0.0026929602 0.16799998 859931
0.72534734 -0.0039808005 0.16999996 859931
0.72515345 -0.00539691 0.17099994 859931
0.72476578 -0.0066664517 0.17299998 794138
0.72457188 -0.0080694929 0.17399997 859931
0.72437805 -0.0094673112 0.17499995 859931
0.72418416 -0.010859899 0.17599994 859931
0.72399032 -0.012247249 0.17699999 859931
0.72379643 -0.013629384 0.17799997 859161
0.72379643 -0.015163302 0.17799997 661782
0.72360259 -0.016537599 0.17899996 793368
0.72360259 -0.018068887 0.17899996 661782
0.72360259 -0.01960019 0.17899996 792854
0.72360259 -0.021131493 0.17899996 924440
0.72360259 -0.022662796 0.17899996 924440
0.72360259 -0.024194092 0.17899996 792854
0.72360259 -0.025725394 0.17899996 924438
0.72360259 -0.027256697 0.17899996 792852
0.72379643 -0.02896852 0.17799997 792852
0.72379643 -0.030502439 0.17799997 727059
0.72379643 -0.032036349 0.17799997 661266
0.72379643 -0.033570267 0.17799997 661266
0.72399032 -0.035295159 0.17699999 661266
0.72418416 -0.03702528 0.17599994 661266
0.72418416 -0.038564421 0.17599994 727059
0.72418416 -0.040103562 0.17599994 792339
0.72418416 -0.041642703 0.17599994 660753
0.72418416 -0.043181844 0.17599994 594960
0.72418416 -0.044720985 0.17599994 594960
0.72437805 -0.046469398 0.17499995 594960
0.72437805 -0.048011146 0.17499995 594960
0.72437805 -0.04955291 0.17499995 529167
0.72457188 -0.051311769 0.17399997 397581
0.72457188 -0.052856125 0.17399997 397581
0.72476578 -0.054622822 0.17299998 397581
0.72495961 -0.056394763 0.17199993 528397
0.72495961 -0.05794435 0.17199993 462604
0.72515345 -0.059724115 0.17099994 462604
0.72534734 -0.06150911 0.16999996 396811
0.72573507 -0.063534729 0.16799998 462604
0.7259289 -0.065332808 0.16699994 397834
0.7259289 -0.066895463 0.16699994 397834
0.7261228 -0.068701364 0.16599995 661006
0.72651052 -0.070758335 0.16399997 661006
0.72670436 -0.072577305 0.16299993 661006
0.72670436 -0.074150436 0.16299993 661006
0.72689825 -0.075977229 0.16199994 661006
0.72709209 -0.077809237 0.16099995 661006
0.72709209 -0.079387583 0.16099995 726799
0.72728592 -0.081227444 0.15999997 726546
0.72767365 -0.083336703 0.15799993 726546
0.72767365 -0.084922872 0.15799993 792339
0.72786754 -0.08677844 0.15699995 924438
0.72786754 -0.088367216 0.15699995 1056024
0.72786754 -0.089956008 0.15699995 924954
0.72786754 -0.0915448 0.15699995 5730923
0.72608751 0.032454215 0.15799993 2965305
0.72608751 0.030868039 0.15799993 1121304
0.72608751 0.029281862 0.15799993 989718
0.72627872 0.027614459 0.15699995 858132
0.72627872 0.026025672 0.15699995 858132
0.72627872 0.02443688 0.15699995 858132
0.72627872 0.022848092 0.15699995 858132
0.72627872 0.0212593 0.15699995 858132
0.72627872 0.019670509 0.15699995 792852
0.72627872 0.018081721 0.15699995 924438
0.72627872 0.016492929 0.15699995 924438
0.72627872 0.014904138 0.15699995 924438
0.72627872 0.01331535 0.15699995 792852
0.72608751 0.011833914 0.15799993 1121819
0.72608751 0.010247737 0.15799993 990747
0.72608751 0.0086615607 0.15799993 859931
0.72570503 0.007305786 0.15999997 859931
0.72570503 0.0057248324 0.15999997 859931
0.72551376 0.0042643026 0.16099995 859931
0.72532248 0.002809003 0.16199994 925724
0.72494 0.0014845803 0.16399997 991517
0.72455752 0.00017060339 0.16599995 925724
0.72436625 -0.0012637973 0.16699994 859931
0.72417498 -0.0026929602 0.16799998 859931
0.72379249 -0.0039808005 0.16999996 794138
0.72360128 -0.00539691 0.17099994 859931
0.72341001 -0.0068077892 0.17199993 794138
0.72302753 -0.0080694929 0.17399997 859931
0.72283626 -0.0094673112 0.17499995 859931
0.72264504 -0.010859899 0.17599994 859931
0.72245377 -0.012247249 0.17699999 794138
0.7222625 -0.013629384 0.17799997 859161
0.7222625 -0.015163302 0.17799997 793368
0.72207129 -0.016537599 0.17899996 793368
0.72207129 -0.018068887 0.17899996 661782
0.72207129 -0.01960019 0.17899996 792854
0.72207129 -0.021131493 0.17899996 924440
0.72207129 -0.022662796 0.17899996 924440
0.72207129 -0.024194092 0.17899996 792854
0.72207129 -0.025725394 0.17899996 792852
0.72207129 -0.027256697 0.17899996 792852
0.7222625 -0.02896852 0.17799997 792852
0.7222625 -0.030502439 0.17799997 727059
0.7222625 -0.032036349 0.17799997 661266
0.7222625 -0.033570267 0.17799997 661266
0.72245377 -0.035295159 0.17699999 661266
0.72245377 -0.036831684 0.17699999 661266
0.72264504 -0.038564421 0.17599994 727059
0.72264504 -0.040103562 0.17599994 727059
0.72264504 -0.041642703 0.17599994 660753
0.72264504 -0.043181844 0.17599994 594960
0.72264504 -0.044720985 0.17599994 594960
0.72264504 -0.046260126 0.17599994 594960
0.72283626 -0.048011146 0.17499995 529167
0.72283626 -0.04955291 0.17499995 529167
0.72283626 -0.051094659 0.17499995 397581
0.72302753 -0.052856125 0.17399997 397581
0.72302753 -0.054400496 0.17399997 397581
0.72341001 -0.056394763 0.17199993 528397
0.72341001 -0.05794435 0.17199993 528397
0.72360128 -0.059724115 0.17099994 528397
0.72379249 -0.06150911 0.16999996 462604
0.72398376 -0.063299336 0.16899997 462604
0.72417498 -0.065094776 0.16799998 528397
0.72436625 -0.066895463 0.16699994 397834
0.72455752 -0.068701364 0.16599995 595213
0.72494 -0.070758335 0.16399997 661006
0.72494 -0.072328828 0.16399997 661006
0.72513127 -0.074150436 0.16299993 595213
0.72513127 -0.075723536 0.16299993 661006
0.72551376 -0.077809237 0.16099995 661006
0.72551376 -0.079387583 0.16099995 726799
0.72570503 -0.081227444 0.15999997 726546
0.72589624 -0.083072551 0.15899998 726546
0.72608751 -0.084922872 0.15799993 792339
0.72627872 -0.08677844 0.15699995 924438
0.72627872 -0.088367216 0.15699995 1056024
0.72627872 -0.089956008 0.15699995 793368
0.72627872 -0.0915448 0.15699995 5533544
0.72450131 0.032454215 0.15799993 3031611
0.72450131 0.030868039 0.15799993 1187099
0.72450131 0.029281862 0.15799993 989720
0.72468996 0.027614459 0.15699995 858132
0.72468996 0.026025672 0.15699995 858132
0.72468996 0.02443688 0.15699995 858132
0.72468996 0.022848092 0.15699995 858132
0.72468996 0.0212593 0.15699995 858132
0.72468996 0.019670509 0.15699995 792852
0.72468996 0.018081721 0.15699995 924438
0.72468996 0.016492929 0.15699995 924438
0.72468996 0.014904138 0.15699995 924438
0.72468996 0.01331535 0.15699995 924438
0.72450131 0.011833914 0.15799993 990747
0.72450131 0.010247737 0.15799993 990747
0.72450131 0.0086615607 0.15799993 859931
0.72431266 0.0071905851 0.15899998 859931
0.72412407 0.0057248324 0.15999997 925724
0.72393543 0.0042643026 0.16099995 925724
0.72374678 0.002809003 0.16199994 925724
0.72355813 0.0013589263 0.16299993 991517
0.72318089 4.234165e-05 0.16499996 925724
0.72299224 -0.0013946667 0.16599995 859931
0.72261494 -0.0026929602 0.16799998 859931
0.72223771 -0.0039808005 0.16999996 794138
0.72204906 -0.00539691 0.17099994 859931
0.72186041 -0.0068077892 0.17199993 794138
0.72148317 -0.0080694929 0.17399997 859931
0.72129452 -0.0094673112 0.17499995 859931
0.72129452 -0.011009067 0.17499995 794138
0.72110587 -0.01239904 0.17599994 794138
0.72091722 -0.013783775 0.17699999 793368
0.72072864 -0.015163302 0.17799997 793368
0.72053999 -0.016537599 0.17899996 793368
0.72053999 -0.018068887 0.17899996 661782
0.72053999 -0.01960019 0.17899996 792854
0.72053999 -0.021131493 0.17899996 924440
0.72053999 -0.022662796 0.17899996 792854
0.72053999 -0.024194092 0.17899996 792854
0.72053999 -0.025725394 0.17899996 792852
0.72053999 -0.027256697 0.17899996 792852
0.72053999 -0.028788 0.17899996 727059
0.72072864 -0.030502439 0.17799997 727059
0.72072864 -0.032036349 0.17799997 661266
0.72072864 -0.033570267 0.17799997 661266
0.72072864 -0.035104178 0.17799997 661266
0.72091722 -0.036831684 0.17699999 727059
0.72091722 -0.03836821 0.17699999 792852
0.72091722 -0.039904736 0.17699999 727059
0.72091722 -0.041441262 0.17699999 595473
0.72110587 -0.043181844 0.17599994 595473
0.72110587 -0.044720985 0.17599994 529680
0.72110587 -0.046260126 0.17599994 529680
0.72129452 -0.048011146 0.17499995 463887
0.72129452 -0.04955291 0.17499995 529420
0.72129452 -0.051094659 0.17499995 397834
0.72148317 -0.052856125 0.17399997 397834
0.72148317 -0.054400496 0.17399997 397834
0.72167182 -0.0561698 0.17299998 528397
0.72186041 -0.05794435 0.17199993 528397
0.72204906 -0.059724115 0.17099994 528397
0.72223771 -0.06150911 0.16999996 462604
0.72242635 -0.063299336 0.16899997 462604
0.72261494 -0.065094776 0.16799998 462604
0.72280359 -0.066895463 0.16699994 528397
0.72299224 -0.068701364 0.16599995 594960
0.72336948 -0.070758335 0.16399997 660753
0.72336948 -0.072328828 0.16399997 594960
0.72355813 -0.074150436 0.16299993 661006
0.72355813 -0.075723536 0.16299993 661006
0.72393543 -0.077809237 0.16099995 661006
0.72393543 -0.079387583 0.16099995 726799
0.72412407 -0.081227444 0.15999997 660753
0.72431266 -0.083072551 0.15899998 726546
0.72450131 -0.084922872 0.15799993 792339
0.72468996 -0.08677844 0.15699995 924438
0.72468996 -0.088367216 0.15699995 1056024
0.72468996 -0.089956008 0.15699995 661784
0.72468996 -0.0915448 0.15699995 5533544
0.72272909 0.032527607 0.15899998 3031611
0.72272909 0.030944042 0.15899998 1187097
0.72291517 0.029281862 0.15799993 858132
0.72310114 0.027614459 0.15699995 858132
0.72310114 0.026025672 0.15699995 858132
0.72310114 0.02443688 0.15699995 858132
0.72310114 0.022848092 0.15699995 858132
0.72310114 0.0212593 0.15699995 792339
0.72310114 0.019670509 0.15699995 858132
0.72310114 0.018081721 0.15699995 924438
0.72310114 0.016492929 0.15699995 792852
0.72310114 0.014904138 0.15699995 792852
0.72310114 0.01331535 0.15699995 924438
0.72310114 0.011726558 0.15699995 924952
0.72291517 0.010247737 0.15799993 924954
0.72291517 0.0086615607 0.15799993 990747
0.72272909 0.0071905851 0.15899998 859931
0.72254312 0.0057248324 0.15999997 925724
0.72235709 0.0042643026 0.16099995 859931
0.72235709 0.0026859641 0.16099995 859931
0.72198504 0.0013589263 0.16299993 925724
0.72179902 -8.5920095e-05 0.16399997 925724
0.72142696 -0.0013946667 0.16599995 859931
0.72124094 -0.0028264523 0.16699994 859931
0.72086889 -0.0041169077 0.16899997 859931
0.72068286 -0.0055356249 0.16999996 859931
0.72031081 -0.0068077892 0.17199993 794138
0.72012484 -0.0082134381 0.17299998 859931
0.71993881 -0.0096138641 0.17399997 794138
0.71975279 -0.011009067 0.17499995 794138
0.71956676 -0.01239904 0.17599994 794138
0.71938074 -0.013783775 0.17699999 662552
0.71919471 -0.015163302 0.17799997 793368
0.71919471 -0.016697213 0.17799997 793368
0.71900868 -0.018068887 0.17899996 661782
0.71900868 -0.01960019 0.17899996 792854
0.71900868 -0.021131493 0.17899996 924440
0.71900868 -0.022662796 0.17899996 792854
0.71900868 -0.024194092 0.17899996 792854
0.71900868 -0.025725394 0.17899996 792852
0.71900868 -0.027256697 0.17899996 792852
0.71919471 -0.02896852 0.17799997 727059
0.71919471 -0.030502439 0.17799997 727059
0.71919471 -0.032036349 0.17799997 661266
0.71919471 -0.033570267 0.17799997 661266
0.71919471 -0.035104178 0.17799997 661266
0.71919471 -0.036638096 0.17799997 727059
0.71938074 -0.03836821 0.17699999 924438
0.71938074 -0.039904736 0.17699999 727059
0.71938074 -0.041441262 0.17699999 595473
0.71938074 -0.042977795 0.17699999 595473
0.71956676 -0.044720985 0.17599994 529680
0.71956676 -0.046260126 0.17599994 529680
0.71956676 -0.047799267 0.17599994 529420
0.71975279 -0.04955291 0.17499995 529420
0.71975279 -0.051094659 0.17499995 529420
0.71993881 -0.052856125 0.17399997 397834
0.71993881 -0.054400496 0.17399997 397834
0.72012484 -0.0561698 0.17299998 528397
0.72031081 -0.05794435 0.17199993 528397
0.72049683 -0.059724115 0.17099994 528397
0.72068286 -0.06150911 0.16999996 462604
0.72086889 -0.063299336 0.16899997 462604
0.72105491 -0.065094776 0.16799998 462604
0.72124094 -0.066895463 0.16699994 462604
0.72142696 -0.068701364 0.16599995 725776
0.72161299 -0.070512481 0.16499996 725776
0.72179902 -0.072328828 0.16399997 594960
0.72198504 -0.074150436 0.16299993 595213
0.72198504 -0.075723536 0.16299993 661006
0.72217107 -0.077552937 0.16199994 661006
0.72235709 -0.079387583 0.16099995 726799
0.72254312 -0.081227444 0.15999997 661006
0.72272909 -0.083072551 0.15899998 726546
0.72291517 -0.084922872 0.15799993 792339
0.72310114 -0.08677844 0.15699995 924438
0.72310114 -0.088367216 0.15699995 990231
0.72310114 -0.089956008 0.15699995 859163
0.72310114 -0.0915448 0.15699995 5072479
0.72114557 0.032527607 0.15899998 3163197
0.72114557 0.030944042 0.15899998 1121304
0.72132897 0.029281862 0.15799993 858132
0.72151238 0.027614459 0.15699995 792339
0.72151238 0.026025672 0.15699995 792339
0.72151238 0.02443688 0.15699995 792339
0.72151238 0.022848092 0.15699995 858132
0.72151238 0.0212593 0.15699995 792339
0.72151238 0.019670509 0.15699995 989718
0.72169578 0.017984815 0.15599996 989718
0.72151238 0.016492929 0.15699995 924438
0.72151238 0.014904138 0.15699995 924438
0.72151238 0.01331535 0.15699995 924438
0.72151238 0.011726558 0.15699995 1121817
0.72132897 0.010247737 0.15799993 924952
0.72132897 0.0086615607 0.15799993 990747
0.72132897 0.0070753843 0.15799993 859931
0.72096217 0.0057248324 0.15999997 925724
0.72096217 0.0041438788 0.15999997 859931
0.7207787 0.0026859641 0.16099995 859931
0.7204119 0.0013589263 0.16299993 925724
0.72022849 -8.5920095e-05 0.16399997 925724
0.72004509 -0.0015255436 0.16499996 859931
0.71967828 -0.0028264523 0.16699994 859931
0.71949488 -0.0042530075 0.16799998 859931
0.71912807 -0.0055356249 0.16999996 859931
0.71894467 -0.0069491193 0.17099994 794138
0.71876127 -0.0083573833 0.17199993 859931
0.7183944 -0.0096138641 0.17399997 794138
0.718211 -0.011009067 0.17499995 794138
0.71802759 -0.01239904 0.17599994 794138
0.71784419 -0.013783775 0.17699999 662552
0.71766078 -0.015163302 0.17799997 793368
0.71766078 -0.016697213 0.17799997 793368
0.71766078 -0.018231124 0.17799997 661782
0.71747738 -0.01960019 0.17899996 792854
0.71747738 -0.021131493 0.17899996 924440
0.71747738 -0.022662796 0.17899996 792854
0.71747738 -0.024194092 0.17899996 792854
0.71747738 -0.025725394 0.17899996 792852
0.71747738 -0.027256697 0.17899996 792852
0.71747738 -0.028788 0.17899996 727059
0.71747738 -0.030319303 0.17899996 727059
0.71766078 -0.032036349 0.17799997 661266
0.71766078 -0.033570267 0.17799997 661268
0.71766078 -0.035104178 0.17799997 661266
0.71766078 -0.036638096 0.17799997 727059
0.71766078 -0.038172007 0.17799997 990231
0.71766078 -0.039705925 0.17799997 924438
0.71766078 -0.041239835 0.17799997 661266
0.71766078 -0.042773753 0.17799997 595473
0.71784419 -0.044514321 0.17699999 595213
0.71802759 -0.046260126 0.17599994 595213
0.71802759 -0.047799267 0.17599994 529420
0.718211 -0.04955291 0.17499995 595213
0.718211 -0.051094659 0.17499995 529420
0.7183944 -0.052856125 0.17399997 397834
0.7183944 -0.054400496 0.17399997 397834
0.71857786 -0.0561698 0.17299998 397581
0.71876127 -0.05794435 0.17199993 397581
0.71894467 -0.059724115 0.17099994 397581
0.71912807 -0.06150911 0.16999996 331788
0.71949488 -0.063534729 0.16799998 331788
0.71949488 -0.065094776 0.16799998 462604
0.71967828 -0.066895463 0.16699994 462604
0.71986169 -0.068701364 0.16599995 725776
0.72022849 -0.070758335 0.16399997 725776
0.72022849 -0.072328828 0.16399997 725776
0.7204119 -0.074150436 0.16299993 660753
0.72059536 -0.075977229 0.16199994 726799
0.7207787 -0.077809237 0.16099995 661006
0.7207787 -0.079387583 0.16099995 726799
0.72096217 -0.081227444 0.15999997 661006
0.72114557 -0.083072551 0.15899998 726546
0.72132897 -0.084922872 0.15799993 792339
0.72151238 -0.08677844 0.15699995 989718
0.72151238 -0.088367216 0.15699995 1055511
0.72151238 -0.089956008 0.15699995 924956
0.72151238 -0.0915448 0.15699995 4744030
0.71956199 0.032527607 0.15899998 3426109
0.71956199 0.030944042 0.15899998 1121304
0.71974277 0.029281862 0.15799993 989718
0.71974277 0.027695682 0.15799993 792339
0.71992356 0.026025672 0.15699995 792339
0.71992356 0.02443688 0.15699995 792339
0.71992356 0.022848092 0.15699995 858132
0.71992356 0.0212593 0.15699995 792339
0.71992356 0.019670509 0.15699995 858132
0.7201044 0.017984815 0.15599996 989718
0.7201044 0.016393412 0.15599996 924438
0.71992356 0.014904138 0.15699995 792852
0.71992356 0.01331535 0.15699995 924438
0.71992356 0.011726558 0.15699995 1121817
0.71992356 0.010137767 0.15699995 924952
0.71974277 0.0086615607 0.15799993 990747
0.71974277 0.0070753843 0.15799993 859931
0.71956199 0.0056070238 0.15899998 859931
0.71938121 0.0041438788 0.15999997 859931
0.71920037 0.0026859641 0.16099995 859931
0.71901959 0.0012332723 0.16199994 925724
0.71883881 -0.00021418929 0.16299993 925724
0.71847719 -0.0015255436 0.16499996 859931
0.71829641 -0.0029599443 0.16599995 794138
0.71793485 -0.0042530075 0.16799998 859931
0.71757323 -0.0055356249 0.16999996 859931
0.71739244 -0.0069491193 0.17099994 794138
0.71721166 -0.0083573833 0.17199993 794138
0.71685004 -0.0096138641 0.17399997 794138
0.71666926 -0.011009067 0.17499995 728345
0.71648848 -0.01239904 0.17599994 794138
0.71648848 -0.013938181 0.17599994 728345
0.71612686 -0.015163302 0.17799997 793368
0.71612686 -0.016697213 0.17799997 661782
0.71612686 -0.018231124 0.17799997 793368
0.71612686 -0.019765034 0.17799997 792854
0.71594608 -0.021131493 0.17899996 924440
0.71594608 -0.022662796 0.17899996 924440
0.71594608 -0.024194092 0.17899996 792854
0.71594608 -0.025725394 0.17899996 924438
0.71594608 -0.027256697 0.17899996 792852
0.71594608 -0.028788 0.17899996 727059
0.71594608 -0.030319303 0.17899996 661266
0.71594608 -0.031850599 0.17899996 661266
0.71594608 -0.033381902 0.17899996 661268
0.71594608 -0.034913205 0.17899996 661268
0.71594608 -0.036444508 0.17899996 727059
0.71594608 -0.037975803 0.17899996 990231
0.71612686 -0.039705925 0.17799997 990231
0.71612686 -0.041239835 0.17799997 661266
0.71612686 -0.042773753 0.17799997 595473
0.71612686 -0.044307664 0.17799997 529680
0.71630764 -0.046050847 0.17699999 463887
0.71648848 -0.047799267 0.17599994 529167
0.71648848 -0.049338408 0.17599994 595213
0.71666926 -0.051094659 0.17499995 529420
0.71666926 -0.052636407 0.17499995 397581
0.71685004 -0.054400496 0.17399997 397581
0.71721166 -0.056394763 0.17199993 397581
0.71721166 -0.05794435 0.17199993 397581
0.71739244 -0.059724115 0.17099994 397581
0.71757323 -0.06150911 0.16999996 331788
0.71793485 -0.063534729 0.16799998 331788
0.71811563 -0.065332808 0.16699994 331788
0.71829641 -0.067136087 0.16599995 462604
0.71847719 -0.068944596 0.16499996 725776
0.71865803 -0.070758335 0.16399997 725776
0.71883881 -0.072577305 0.16299993 725776
0.71883881 -0.074150436 0.16299993 660753
0.71901959 -0.075977229 0.16199994 726799
0.71920037 -0.077809237 0.16099995 661006
0.71920037 -0.079387583 0.16099995 726799
0.71938121 -0.081227444 0.15999997 661006
0.71956199 -0.083072551 0.15899998 726546
0.71974277 -0.084922872 0.15799993 726546
0.71974277 -0.086509056 0.15799993 792852
0.71992356 -0.088367216 0.15699995 990231
0.71992356 -0.089956008 0.15699995 924954
0.71992356 -0.0915448 0.15699995 4744030
0.71780026 0.032600991 0.15999997 3294523
0.71797842 0.030944042 0.15899998 1121304
0.71815664 0.029281862 0.15799993 858132
0.71815664 0.027695682 0.15799993 792339
0.71833479 0.026025672 0.15699995 792339
0.71833479 0.02443688 0.15699995 792339
0.71833479 0.022848092 0.15699995 858132
0.71833479 0.0212593 0.15699995 792339
0.71833479 0.019670509 0.15699995 858132
0.71851295 0.017984815 0.15599996 792852
0.71851295 0.016393412 0.15599996 924438
0.71833479 0.014904138 0.15699995 792852
0.71833479 0.01331535 0.15699995 792852
0.71833479 0.011726558 0.15699995 1121817
0.71833479 0.010137767 0.15699995 924952
0.71815664 0.0086615607 0.15799993 859931
0.71815664 0.0070753843 0.15799993 859931
0.71797842 0.0056070238 0.15899998 859931
0.71780026 0.0041438788 0.15999997 859931
0.71762204 0.0026859641 0.16099995 859931
0.71744388 0.0012332723 0.16199994 925724
0.71726573 -0.00021418929 0.16299993 925724
0.71708751 -0.0016564205 0.16399997 859931
0.71673113 -0.0029599443 0.16599995 859931
0.71637475 -0.0042530075 0.16799998 859931
0.71601844 -0.0055356249 0.16999996 859931
0.71584022 -0.0069491193 0.17099994 794138
0.71566206 -0.0083573833 0.17199993 794138
0.71530569 -0.0096138641 0.17399997 794138
0.71512753 -0.011009067 0.17499995 728345
0.71494931 -0.01239904 0.17599994 794138
0.71494931 -0.013938181 0.17599994 728345
0.71459293 -0.015163302 0.17799997 662552
0.71459293 -0.016697213 0.17799997 530966
0.71459293 -0.018231124 0.17799997 793368
0.71441478 -0.01960019 0.17899996 924440
0.71441478 -0.021131493 0.17899996 924440
0.71441478 -0.022662796 0.17899996 990233
0.71441478 -0.024194092 0.17899996 792854
0.71441478 -0.025725394 0.17899996 924438
0.71441478 -0.027256697 0.17899996 924438
0.71423662 -0.028607473 0.17999995 727059
0.71441478 -0.030319303 0.17899996 661266
0.71441478 -0.031850599 0.17899996 661266
0.71441478 -0.033381902 0.17899996 661268
0.71441478 -0.034913205 0.17899996 727061
0.71441478 -0.036444508 0.17899996 727061
0.71441478 -0.037975803 0.17899996 990231
0.71441478 -0.039507106 0.17899996 990231
0.71441478 -0.041038409 0.17899996 661266
0.71459293 -0.042773753 0.17799997 595473
0.71459293 -0.044307664 0.17799997 529680
0.71477115 -0.046050847 0.17699999 529680
0.71494931 -0.047799267 0.17599994 594960
0.71494931 -0.049338408 0.17599994 529167
0.71512753 -0.051094659 0.17499995 397581
0.71512753 -0.052636407 0.17499995 397581
0.71530569 -0.054400496 0.17399997 397581
0.71566206 -0.056394763 0.17199993 397581
0.71584022 -0.05817192 0.17099994 397581
0.71584022 -0.059724115 0.17099994 397581
0.71601844 -0.06150911 0.16999996 397581
0.71637475 -0.063534729 0.16799998 331788
0.71655297 -0.065332808 0.16699994 265995
0.71673113 -0.067136087 0.16599995 331788
0.71690935 -0.068944596 0.16499996 594960
0.71708751 -0.070758335 0.16399997 594960
0.71726573 -0.072577305 0.16299993 660753
0.71726573 -0.074150436 0.16299993 660753
0.71744388 -0.075977229 0.16199994 660753
0.71762204 -0.077809237 0.16099995 660753
0.71762204 -0.079387583 0.16099995 726546
0.71780026 -0.081227444 0.15999997 660753
0.71797842 -0.083072551 0.15899998 726546
0.71815664 -0.084922872 0.15799993 727059
0.71815664 -0.086509056 0.15799993 792852
0.71815664 -0.088095225 0.15799993 990231
0.71815664 -0.089681424 0.15799993 990233
0.71621931 0.032600991 0.15999997 3162937
0.71639484 0.030944042 0.15899998 1121304
0.71657044 0.029281862 0.15799993 858132
0.71657044 0.027695682 0.15799993 792339
0.71657044 0.026109509 0.15799993 792339
0.71674597 0.02443688 0.15699995 792339
0.71674597 0.022848092 0.15699995 858132
0.71674597 0.0212593 0.15699995 792339
0.71674597 0.019670509 0.15699995 858132
0.71674597 0.018081721 0.15699995 792852
0.71692157 0.016393412 0.15599996 924438
0.71674597 0.014904138 0.15699995 792852
0.71674597 0.01331535 0.15699995 792852
0.71674597 0.011726558 0.15699995 1056026
0.71674597 0.010137767 0.15699995 924954
0.71657044 0.0086615607 0.15799993 859931
0.71657044 0.0070753843 0.15799993 859931
0.71639484 0.0056070238 0.15899998 859931
0.71621931 0.0041438788 0.15999997 859931
0.71604371 0.0026859641 0.16099995 859931
0.71586818 0.0012332723 0.16199994 925724
0.71569258 -0.00021418929 0.16299993 925724
0.71534145 -0.0015255436 0.16499996 859931
0.71516585 -0.0029599443 0.16599995 794138
0.71481472 -0.0042530075 0.16799998 859931
0.71446359 -0.0055356249 0.16999996 859931
0.71428806 -0.0069491193 0.17099994 794138
0.71411246 -0.0083573833 0.17199993 794138
0.71376133 -0.0096138641 0.17399997 794138
0.71358573 -0.011009067 0.17499995 728345
0.7134102 -0.01239904 0.17599994 728345
0.7132346 -0.013783775 0.17699999 793368
0.71305907 -0.015163302 0.17799997 793368
0.71305907 -0.016697213 0.17799997 661782
0.71288347 -0.018068887 0.17899996 661782
0.71288347 -0.01960019 0.17899996 924440
0.71288347 -0.021131493 0.17899996 924440
0.71270794 -0.022492722 0.17999995 924440
0.71270794 -0.024021409 0.17999995 792854
0.71270794 -0.025550097 0.17999995 924440
0.71270794 -0.027078785 0.17999995 792852
0.71270794 -0.028607473 0.17999995 727059
0.71270794 -0.030136161 0.17999995 661266
0.71270794 -0.031664848 0.17999995 661266
0.71270794 -0.033193544 0.17999995 727059
0.71270794 -0.034722231 0.17999995 792852
0.71270794 -0.036250919 0.17999995 1121817
0.71270794 -0.037779607 0.17999995 990231
0.71288347 -0.039507106 0.17899996 990231
0.71288347 -0.041038409 0.17899996 661266
0.71288347 -0.042569712 0.17899996 595473
0.71305907 -0.044307664 0.17799997 660753
0.71305907 -0.045841582 0.17799997 594960
0.7132346 -0.047587372 0.17699999 594960
0.7134102 -0.049338408 0.17599994 529167
0.71358573 -0.051094659 0.17499995 529167
0.71358573 -0.052636407 0.17499995 397581
0.71376133 -0.054400496 0.17399997 397581
0.71411246 -0.056394763 0.17199993 397581
0.71428806 -0.05817192 0.17099994 397581
0.71428806 -0.059724115 0.17099994 331788
0.71463919 -0.061741896 0.16899997 397581
0.71481472 -0.063534729 0.16799998 331788
0.71499032 -0.065332808 0.16699994 265995
0.71516585 -0.067136087 0.16599995 331788
0.71551704 -0.069187827 0.16399997 594960
0.71551704 -0.070758335 0.16399997 594960
0.71569258 -0.072577305 0.16299993 660753
0.71569258 -0.074150436 0.16299993 660753
0.71604371 -0.076230906 0.16099995 660753
0.71604371 -0.077809237 0.16099995 660753
0.71604371 -0.079387583 0.16099995 726546
0.71621931 -0.081227444 0.15999997 660753
0.71657044 -0.083336703 0.15799993 726546
0.71657044 -0.084922872 0.15799993 792339
0.71657044 -0.086509056 0.15799993 792852
0.71657044 -0.088095225 0.15799993 990231
0.71657044 -0.089681424 0.15799993 1121819
0.71463835 0.032600991 0.15999997 3228730
0.71463835 0.031020042 0.15999997 1252120
0.71481127 0.029360477 0.15899998 858132
0.71498424 0.027695682 0.15799993 792339
0.71498424 0.026109509 0.15799993 792339
0.71498424 0.024523333 0.15799993 858132
0.71498424 0.022937156 0.15799993 858132
0.71515721 0.0212593 0.15699995 792339
0.71515721 0.019670509 0.15699995 858132
0.71515721 0.018081721 0.15699995 792852
0.71515721 0.016492929 0.15699995 924438
0.71515721 0.014904138 0.15699995 792852
0.71515721 0.01331535 0.15699995 924438
0.71515721 0.011726558 0.15699995 1056026
0.71515721 0.010137767 0.15699995 924954
0.71498424 0.0086615607 0.15799993 794138
0.71498424 0.0070753843 0.15799993 859931
0.71481127 0.0056070238 0.15899998 859931
0.71463835 0.0041438788 0.15999997 859931
0.71446538 0.0026859641 0.16099995 859931
0.71411949 0.0013589263 0.16299993 925724
0.71394652 -8.5920095e-05 0.16399997 859931
0.71360064 -0.0013946667 0.16599995 859931
0.71342766 -0.0028264523 0.16699994 859931
0.71308172 -0.0041169077 0.16899997 859931
0.7129088 -0.0055356249 0.16999996 859931
0.71256286 -0.0068077892 0.17199993 794138
0.71238989 -0.0082134381 0.17299998 794138
0.712044 -0.0094673112 0.17499995 794138
0.71187103 -0.010859899 0.17599994 728345
0.71187103 -0.01239904 0.17599994 859161
0.71152514 -0.013629384 0.17799997 793368
0.71152514 -0.015163302 0.17799997 793368
0.71135217 -0.016537599 0.17899996 661782
0.71135217 -0.018068887 0.17899996 792854
0.7111792 -0.019435346 0.17999995 924440
0.7111792 -0.020964034 0.17999995 924440
0.7111792 -0.022492722 0.17999995 924440
0.7111792 -0.024021409 0.17999995 924440
0.71100628 -0.0253748 0.18099993 924440
0.71100628 -0.02690088 0.18099993 792852
0.71100628 -0.028426953 0.18099993 792852
0.71100628 -0.029953025 0.18099993 727059
0.71100628 -0.031479105 0.18099993 661266
0.71100628 -0.033005178 0.18099993 727059
0.71100628 -0.034531251 0.18099993 924952
0.7111792 -0.036250919 0.17999995 990745
0.7111792 -0.037779607 0.17999995 859159
0.7111792 -0.039308295 0.17999995 859159
0.7111792 -0.040836982 0.17999995 661266
0.71135217 -0.042569712 0.17899996 595473
0.71135217 -0.044101015 0.17899996 595473
0.71152514 -0.045841582 0.17799997 594960
0.71169806 -0.047587372 0.17699999 594960
0.71187103 -0.049338408 0.17599994 529167
0.71187103 -0.050877549 0.17599994 529167
0.712044 -0.052636407 0.17499995 397581
0.71221697 -0.054400496 0.17399997 397581
0.71256286 -0.056394763 0.17199993 397581
0.71273583 -0.05817192 0.17099994 331788
0.7129088 -0.059954293 0.16999996 397581
0.71308172 -0.061741896 0.16899997 397581
0.71325469 -0.063534729 0.16799998 331788
0.71342766 -0.065332808 0.16699994 331788
0.71360064 -0.067136087 0.16599995 331788
0.71394652 -0.069187827 0.16399997 529167
0.71411949 -0.071004204 0.16299993 594960
0.71411949 -0.072577305 0.16299993 660753
0.71429241 -0.074401505 0.16199994 660753
0.71446538 -0.076230906 0.16099995 661006
0.71446538 -0.077809237 0.16099995 661006
0.71463835 -0.079646505 0.15999997 661006
0.71463835 -0.081227444 0.15999997 661006
0.71481127 -0.083072551 0.15899998 726546
0.71498424 -0.084922872 0.15799993 726546
0.71498424 -0.086509056 0.15799993 989718
0.71498424 -0.088095225 0.15799993 1055511
0.71498424 -0.089681424 0.15799993 1121819
0.7130574 0.032600991 0.15999997 2965558
0.7130574 0.031020042 0.15999997 1186327
0.7130574 0.029439088 0.15999997 858132
0.71322775 0.027776912 0.15899998 792339
0.7133981 0.026109509 0.15799993 727059
0.7133981 0.024523333 0.15799993 792852
0.7133981 0.022937156 0.15799993 858132
0.7133981 0.021350976 0.15799993 858132
0.71356845 0.019670509 0.15699995 792852
0.71356845 0.018081721 0.15699995 792852
0.71356845 0.016492929 0.15699995 924438
0.71356845 0.014904138 0.15699995 792852
0.71356845 0.01331535 0.15699995 924438
0.71356845 0.011726558 0.15699995 1056024
0.7133981 0.010247737 0.15799993 924952
0.7133981 0.0086615607 0.15799993 794138
0.71322775 0.0071905851 0.15899998 859931
0.7130574 0.0057248324 0.15999997 859931
0.71288705 0.0042643026 0.16099995 859931
0.7127167 0.002809003 0.16199994 925724
0.712376 0.0014845803 0.16399997 925724
0.71220571 4.234165e-05 0.16499996 859931
0.71203536 -0.0013946667 0.16599995 859931
0.71169466 -0.0026929602 0.16799998 859931
0.71135396 -0.0039808005 0.16999996 859931
0.71118361 -0.00539691 0.17099994 859931
0.71101332 -0.0068077892 0.17199993 859931
0.71067262 -0.0080694929 0.17399997 794138
0.71050227 -0.0094673112 0.17499995 794138
0.71033192 -0.010859899 0.17599994 728345
0.71016157 -0.012247249 0.17699999 728345
0.70999122 -0.013629384 0.17799997 793368
0.70982087 -0.015006296 0.17899996 793368
0.70982087 -0.016537599 0.17899996 661782
0.70965052 -0.017906658 0.17999995 661782
0.70965052 -0.019435346 0.17999995 924440
0.70948023 -0.020796575 0.18099993 924440
0.70948023 -0.022322655 0.18099993 924440
0.70948023 -0.023848727 0.18099993 924440
0.70930988 -0.025199495 0.18199998 924440
0.70930988 -0.026722953 0.18199998 924440
0.70930988 -0.028246418 0.18199998 792852
0.70930988 -0.029769883 0.18199998 924438
0.70930988 -0.03129334 0.18199998 792852
0.70930988 -0.032816805 0.18199998 1056024
0.70930988 -0.034340262 0.18199998 1253917
0.70948023 -0.036057331 0.18099993 924952
0.70948023 -0.037583403 0.18099993 793366
0.70965052 -0.039308295 0.17999995 793366
0.70965052 -0.040836982 0.17999995 661266
0.70982087 -0.042569712 0.17899996 595473
0.70982087 -0.044101015 0.17899996 595473
0.70999122 -0.045841582 0.17799997 529680
0.70999122 -0.047375493 0.17799997 529680
0.71033192 -0.049338408 0.17599994 463887
0.71033192 -0.050877549 0.17599994 529167
0.71050227 -0.052636407 0.17499995 529167
0.71067262 -0.054400496 0.17399997 529167
0.71101332 -0.056394763 0.17199993 529167
0.71118361 -0.05817192 0.17099994 397581
