# .PCD v0.7 - Point Cloud Data file format
VERSION 0.7
FIELDS x y z rgb
SIZE 4 4 4 4
TYPE F F F U
COUNT 1 1 1 1
WIDTH 1124
HEIGHT 1
VIEWPOINT 0 0 0 1 0 0 0
POINTS 1124
DATA ascii
0.77329522 0.014410503 0.18199998 3027248
0.77329522 0.012887038 0.18199998 3158834
0.77329522 0.011363581 0.18199998 3027248
0.77329522 0.0098401234 0.18199998 2961455
0.77329522 0.0083166584 0.18199998 2895662
0.77329522 0.0067931935 0.18199998 3027501
0.77301514 0.0053927675 0.18299997 2961708
0.77273506 0.0039975718 0.18399996 3158317
0.77245498 0.0026075915 0.18499994 3092524
0.77245498 0.001091972 0.18499994 3158317
0.77245498 -0.00042364746 0.18499994 3092524
0.77217484 -0.0018031746 0.18599993 3158317
0.77217484 -0.0033161789 0.18599993 3092524
0.77189475 -0.0046878532 0.18699998 3092524
0.77189475 -0.0061982498 0.18699998 3092524
0.77217484 -0.0078552142 0.18599993 3092267
0.77217484 -0.0093682185 0.18599993 3158317
0.77217484 -0.01088123 0.18599993 3158317
0.77217484 -0.012394242 0.18599993 3092524
0.77217484 -0.013907246 0.18599993 3026731
0.77217484 -0.015420258 0.18599993 3026731
0.77217484 -0.016933262 0.18599993 3092524
0.77217484 -0.018446267 0.18599993 3026731
0.77245498 -0.020126738 0.18499994 2960938
0.77245498 -0.021642357 0.18499994 3026731
0.77245498 -0.023157984 0.18499994 3092524
0.77245498 -0.024673603 0.18499994 3092524
0.77245498 -0.026189223 0.18499994 3026731
0.77245498 -0.02770485 0.18499994 3026731
0.77245498 -0.029220469 0.18499994 3026731
0.77245498 -0.030736096 0.18499994 3223853
0.77245498 -0.032251716 0.18499994 3223600
0.77245498 -0.033767335 0.18499994 3092271
0.77245498 -0.035282962 0.18499994 3026478
0.77245498 -0.036798581 0.18499994 3092271
0.77245498 -0.038314208 0.18499994 3289903
0.77245498 -0.039829828 0.18499994 3289903
0.77245498 -0.041345447 0.18499994 3158317
0.77245498 -0.042861074 0.18499994 3158317
0.77245498 -0.044376694 0.18499994 3289903
0.77245498 -0.045892321 0.18499994 3289903
0.77245498 -0.04740794 0.18499994 3092524
0.77245498 -0.048923559 0.18499994 3289650
0.77245498 -0.050439186 0.18499994 3289903
0.77245498 -0.051954798 0.18499994 3355696
0.77273506 -0.053695373 0.18399996 3289903
0.77273506 -0.055213608 0.18399996 3158317
0.77273506 -0.056731842 0.18399996 3289903
0.77273506 -0.058250077 0.18399996 3355696
0.77301514 -0.060003705 0.18299997 3355696
0.77273506 -0.061286546 0.18399996 3421236
0.77273506 -0.062804781 0.18399996 5000262
0.77121681 0.04802639 0.18399996 5196871
0.77121681 0.046508156 0.18399996 3421236
0.77121681 0.044989921 0.18399996 3289650
0.77093935 0.043529391 0.18499994 3027250
0.77121681 0.041953452 0.18399996 2961457
0.77121681 0.040435217 0.18399996 2961455
0.77121681 0.038916979 0.18399996 2829869
0.77093935 0.037466906 0.18499994 2895662
0.77121681 0.03588051 0.18399996 2895662
0.77121681 0.034362275 0.18399996 2829869
0.77121681 0.032844037 0.18399996 2895662
0.77149427 0.031247191 0.18299997 2961708
0.77149427 0.029726341 0.18299997 2895915
0.77149427 0.028205495 0.18299997 2830122
0.77177179 0.026598196 0.18199998 2830122
0.77177179 0.025074735 0.18199998 2961708
0.77177179 0.023551274 0.18199998 2895915
0.77177179 0.022027809 0.18199998 3027501
0.77177179 0.020504348 0.18199998 2895915
0.77177179 0.018980887 0.18199998 2961708
0.77204925 0.017355289 0.18099993 2961708
0.77204925 0.015829213 0.18099993 2961708
0.77204925 0.01430314 0.18099993 2895662
0.77204925 0.01277706 0.18099993 2961455
0.77177179 0.011363581 0.18199998 2895662
0.77177179 0.0098401234 0.18199998 2829869
0.77177179 0.0083166584 0.18199998 2829869
0.77149427 0.0069136173 0.18299997 2895662
0.77121681 0.0055158064 0.18399996 2830122
0.77121681 0.0039975718 0.18399996 2895915
0.77093935 0.0026075915 0.18499994 2961708
0.77066183 0.0012228489 0.18599993 2961708
0.77066183 -0.00029016286 0.18599993 2830122
0.77038437 -0.0016670674 0.18699998 2895915
0.77038437 -0.003177464 0.18699998 3026731
0.77010691 -0.0045465305 0.18799996 2960938
0.77010691 -0.006054312 0.18799996 2960938
0.77010691 -0.0075620934 0.18799996 2960938
0.77010691 -0.0090698823 0.18799996 3092524
0.77010691 -0.010577664 0.18799996 3092524
0.77038437 -0.012239836 0.18699998 3026731
0.77038437 -0.013750233 0.18699998 3026731
0.77038437 -0.015260629 0.18699998 2960938
0.77066183 -0.016933262 0.18599993 2960938
0.77066183 -0.018446267 0.18599993 2895145
0.77066183 -0.019959278 0.18599993 2895145
0.77066183 -0.02147229 0.18599993 2829352
0.77066183 -0.022985294 0.18599993 3026731
0.77066183 -0.024498306 0.18599993 3026731
0.77066183 -0.026011318 0.18599993 3026731
0.77093935 -0.02770485 0.18499994 2960938
0.77093935 -0.029220469 0.18499994 2960938
0.77093935 -0.030736096 0.18499994 3026731
0.77093935 -0.032251716 0.18499994 3092524
0.77093935 -0.033767335 0.18499994 2960938
0.77066183 -0.035089374 0.18599993 2960938
0.77066183 -0.036602378 0.18599993 3026731
0.77066183 -0.03811539 0.18599993 3092524
0.77066183 -0.039628401 0.18599993 3158317
0.77066183 -0.041141413 0.18599993 3092524
0.77066183 -0.042654417 0.18599993 2895915
0.77066183 -0.044167429 0.18599993 2961708
0.77066183 -0.045680441 0.18599993 3027501
0.77093935 -0.04740794 0.18499994 3092271
0.77093935 -0.048923559 0.18499994 3158064
0.77093935 -0.050439186 0.18499994 3158064
0.77093935 -0.051954798 0.18499994 3289650
0.77093935 -0.053470425 0.18499994 3158064
0.77121681 -0.055213608 0.18399996 3092524
0.77121681 -0.056731842 0.18399996 3289903
0.77121681 -0.058250077 0.18399996 3355696
0.77121681 -0.059768312 0.18399996 3355696
0.77121681 -0.061286546 0.18399996 3552822
0.77121681 -0.062804781 0.18399996 4802883
0.76969856 0.04802639 0.18399996 5262664
0.76942372 0.046560638 0.18499994 3289650
0.76942372 0.045045014 0.18499994 3158064
0.76942372 0.043529391 0.18499994 2895664
0.76942372 0.042013772 0.18499994 2895664
0.76942372 0.040498149 0.18499994 2829869
0.76942372 0.038982525 0.18499994 2829869
0.76942372 0.037466906 0.18499994 2829869
0.76942372 0.035951283 0.18499994 2764076
0.76969856 0.034362275 0.18399996 2764076
0.76969856 0.032844037 0.18399996 2895662
0.76969856 0.031325802 0.18399996 2829869
0.76997346 0.029726341 0.18299997 2764076
0.76997346 0.028205495 0.18299997 2764329
0.77024829 0.026598196 0.18199998 2764329
0.77024829 0.025074735 0.18199998 2895915
0.77024829 0.023551274 0.18199998 2830122
0.77024829 0.022027809 0.18199998 2764329
0.77024829 0.020504348 0.18199998 2764329
0.77024829 0.018980887 0.18199998 2764329
0.77024829 0.017457426 0.18199998 2764329
0.77052319 0.015829213 0.18099993 2830122
0.77052319 0.01430314 0.18099993 2698536
0.77024829 0.012887038 0.18199998 2764329
0.77024829 0.011363581 0.18199998 2764329
0.77024829 0.0098401234 0.18199998 2698536
0.77024829 0.0083166584 0.18199998 2698536
0.76997346 0.0069136173 0.18299997 2698536
0.76969856 0.0055158064 0.18399996 2764329
0.76942372 0.0041232184 0.18499994 2764329
0.76914883 0.0027358532 0.18599993 2764329
0.76914883 0.0012228489 0.18599993 2830122
0.76887399 -0.00015667081 0.18699998 2698536
0.76859909 -0.0015309677 0.18799996 2830122
0.76859909 -0.0030387491 0.18799996 2830122
0.76859909 -0.0045465305 0.18799996 2566950
0.76859909 -0.006054312 0.18799996 2698536
0.76859909 -0.0075620934 0.18799996 2764329
0.76859909 -0.0090698823 0.18799996 2895915
0.76859909 -0.010577664 0.18799996 2764329
0.76859909 -0.012085445 0.18799996 2764329
0.76859909 -0.013593227 0.18799996 2764329
0.76859909 -0.015101008 0.18799996 2764329
0.76859909 -0.01660879 0.18799996 2698536
0.76859909 -0.018116571 0.18799996 2566950
0.76887399 -0.019791812 0.18699998 2566950
0.76887399 -0.021302208 0.18699998 2501157
0.76914883 -0.022985294 0.18599993 2830122
0.76914883 -0.024498306 0.18599993 2830122
0.76914883 -0.026011318 0.18599993 2895915
0.76914883 -0.027524322 0.18599993 2960938
0.76914883 -0.029037334 0.18599993 2960938
0.76914883 -0.030550346 0.18599993 3026731
0.76914883 -0.03206335 0.18599993 2960938
0.76914883 -0.033576362 0.18599993 2895145
0.76914883 -0.035089374 0.18599993 2895145
0.76914883 -0.036602378 0.18599993 3026731
0.76914883 -0.03811539 0.18599993 3026731
0.76914883 -0.039628401 0.18599993 3026731
0.76914883 -0.041141413 0.18599993 3026731
0.76914883 -0.042654417 0.18599993 2830122
0.76914883 -0.044167429 0.18599993 2895915
0.76914883 -0.045680441 0.18599993 2961455
0.76914883 -0.047193445 0.18599993 2961455
0.76914883 -0.04870645 0.18599993 3027248
0.76914883 -0.050219469 0.18599993 3092271
0.76942372 -0.051954798 0.18499994 3158064
0.76942372 -0.053470425 0.18499994 3158064
0.76942372 -0.054986052 0.18499994 3026478
0.76942372 -0.056501664 0.18499994 3355696
0.76969856 -0.058250077 0.18399996 3289903
0.76942372 -0.059532918 0.18499994 3289903
0.76969856 -0.061286546 0.18399996 3618615
0.76969856 -0.062804781 0.18399996 4670527
0.7679081 0.048076261 0.18499994 5722702
0.7679081 0.046560638 0.18499994 3223600
0.76763582 0.045100108 0.18599993 3157807
0.76763582 0.0435871 0.18599993 2829871
0.76763582 0.042074092 0.18599993 2698285
0.76763582 0.040561084 0.18599993 2829101
0.76763582 0.039048072 0.18599993 2698283
0.76763582 0.037535064 0.18599993 2764076
0.76763582 0.036022056 0.18599993 2566697
0.7679081 0.03443566 0.18499994 2566697
0.7679081 0.032920036 0.18499994 2698283
0.76818037 0.031325802 0.18399996 2500904
0.76818037 0.029807568 0.18399996 2500904
0.76845258 0.028205495 0.18299997 2566950
0.76845258 0.026684649 0.18299997 2698536
0.76845258 0.0251638 0.18299997 2764329
0.76845258 0.02364295 0.18299997 2697513
0.76845258 0.0221221 0.18299997 2697513
0.76872486 0.020504348 0.18199998 2697513
0.76872486 0.018980887 0.18199998 2697513
0.76872486 0.017457426 0.18199998 2829099
0.76872486 0.015933964 0.18199998 2631973
0.76872486 0.014410503 0.18199998 2566180
0.76872486 0.012887038 0.18199998 2566180
0.76872486 0.011363581 0.18199998 2501157
0.76872486 0.0098401234 0.18199998 2501157
0.76845258 0.008434467 0.18299997 2435364
0.76845258 0.0069136173 0.18299997 2435364
0.76818037 0.0055158064 0.18399996 2698536
0.7679081 0.0041232184 0.18499994 2764329
0.76763582 0.0027358532 0.18599993 2698536
0.76709133 0.0014846027 0.18799996 2566950
0.76709133 -2.3178756e-05 0.18799996 2566950
0.76681906 -0.0013948604 0.18899995 2764329
0.76681906 -0.0029000342 0.18899995 2698536
0.76681906 -0.0044052005 0.18899995 2501157
0.76654685 -0.0057664365 0.18999994 2566950
0.76654685 -0.0072689876 0.18999994 2566950
0.76654685 -0.0087715462 0.18999994 2764329
0.76681906 -0.010425881 0.18899995 2764329
0.76681906 -0.011931054 0.18899995 2566950
0.76681906 -0.013436221 0.18899995 2566950
0.76681906 -0.014941394 0.18899995 2829352
0.76681906 -0.016446553 0.18899995 2697766
0.76681906 -0.017951727 0.18899995 2566950
0.76709133 -0.019624352 0.18799996 2501157
0.76709133 -0.021132134 0.18799996 2435364
0.76709133 -0.022639915 0.18799996 2764329
0.76736355 -0.024323002 0.18699998 2830122
0.76736355 -0.025833398 0.18699998 2895915
0.76736355 -0.027343787 0.18699998 2960938
0.76736355 -0.028854184 0.18699998 2895145
0.76763582 -0.030550346 0.18599993 2895145
0.76763582 -0.03206335 0.18599993 2829352
0.76763582 -0.033576362 0.18599993 2697766
0.76736355 -0.03489577 0.18699998 2895145
0.76736355 -0.036406167 0.18699998 2960938
0.76736355 -0.037916563 0.18699998 2895145
0.76763582 -0.039628401 0.18599993 2895145
0.76736355 -0.040937357 0.18699998 2960938
0.76736355 -0.042447753 0.18699998 2960938
0.76736355 -0.04395815 0.18699998 3026731
0.76736355 -0.045468546 0.18699998 3026731
0.76763582 -0.047193445 0.18599993 2830122
0.76763582 -0.04870645 0.18599993 2961708
0.76763582 -0.050219469 0.18599993 2961708
0.76763582 -0.051732473 0.18599993 3027501
0.76763582 -0.053245477 0.18599993 3027501
0.76763582 -0.054758482 0.18599993 2895915
0.7679081 -0.056501664 0.18499994 3289650
0.7679081 -0.058017291 0.18499994 3158834
0.7679081 -0.059532918 0.18499994 3158834
0.7679081 -0.06104853 0.18499994 3422006
0.7679081 -0.062564157 0.18499994 4473148
0.76639247 0.048076261 0.18499994 5920594
0.76612282 0.04661312 0.18599993 3092271
0.76612282 0.045100108 0.18599993 3026478
0.76585317 0.043644812 0.18699998 2894894
0.76585317 0.042134415 0.18699998 2697515
0.76585317 0.040624019 0.18699998 2697515
0.76585317 0.039113622 0.18699998 2566697
0.76585317 0.037603229 0.18699998 2698283
0.76612282 0.036022056 0.18599993 2435111
0.76612282 0.034509044 0.18599993 2435111
0.76612282 0.032996036 0.18599993 2500904
0.76639247 0.031404413 0.18499994 2435364
0.76639247 0.02988879 0.18499994 2501157
0.76639247 0.028373174 0.18499994 2501157
0.76666212 0.026771098 0.18399996 2566950
0.76666212 0.025252864 0.18399996 2566697
0.76666212 0.023734629 0.18399996 2500904
0.76666212 0.022216391 0.18399996 2500904
0.76693177 0.020601254 0.18299997 2500904
0.76666212 0.019179922 0.18399996 2631720
0.76693177 0.017559554 0.18299997 2697513
0.76693177 0.016038708 0.18299997 2631973
0.76693177 0.014517859 0.18299997 2566180
0.76693177 0.012997009 0.18299997 2566180
0.76693177 0.011476159 0.18299997 2435364
0.76693177 0.0099553168 0.18299997 2435364
0.76666212 0.0085522756 0.18399996 2369571
0.76666212 0.007034041 0.18399996 2435364
0.76639247 0.0056388378 0.18499994 2566950
0.76612282 0.0042488649 0.18599993 2566950
0.76558352 0.0029923841 0.18799996 2501157
0.76531386 0.0016154796 0.18899995 2566950
0.76531386 0.00011030585 0.18899995 2501157
0.76504427 -0.0012587607 0.18999994 2501157
0.76504427 -0.0027613193 0.18999994 2501157
0.76504427 -0.0042638779 0.18999994 2435364
0.76477462 -0.0056224838 0.19099998 2501157
0.76477462 -0.0071224272 0.19099998 2501157
0.76477462 -0.0086223707 0.19099998 2566950
0.76477462 -0.010122314 0.19099998 2566950
0.76504427 -0.011776663 0.18999994 2501157
0.76504427 -0.013279215 0.18999994 2631973
0.76504427 -0.014781773 0.18999994 2631973
0.76504427 -0.016284324 0.18999994 2697766
0.76531386 -0.017951727 0.18899995 2566180
0.76531386 -0.019456893 0.18899995 2501157
0.76531386 -0.020962067 0.18899995 2435364
0.76531386 -0.022467233 0.18899995 2764329
0.76558352 -0.024147704 0.18799996 2830122
0.76558352 -0.025655486 0.18799996 2830122
0.76558352 -0.027163267 0.18799996 2895145
0.76558352 -0.028671049 0.18799996 2895145
0.76558352 -0.03017883 0.18799996 2895145
0.76558352 -0.031686619 0.18799996 2829352
0.76558352 -0.0331944 0.18799996 2829352
0.76558352 -0.034702182 0.18799996 2895145
0.76558352 -0.036209963 0.18799996 2960938
0.76558352 -0.037717752 0.18799996 2895145
0.76558352 -0.039225534 0.18799996 2960938
0.76558352 -0.040733315 0.18799996 2960938
0.76558352 -0.042241096 0.18799996 3092524
0.76558352 -0.043748878 0.18799996 3026731
0.76558352 -0.045256667 0.18799996 3092524
0.76558352 -0.046764448 0.18799996 3026731
0.76558352 -0.04827223 0.18799996 3158317
0.76585317 -0.049999736 0.18699998 2961708
0.76585317 -0.051510118 0.18699998 3027501
0.76585317 -0.053020515 0.18699998 3027501
0.76612282 -0.054758482 0.18599993 2895915
0.76585317 -0.056041308 0.18699998 3289903
0.76612282 -0.057784505 0.18599993 3158834
0.76612282 -0.059297509 0.18599993 3158834
0.76612282 -0.060810529 0.18599993 3487799
0.76612282 -0.062323533 0.18599993 4276539
0.76460981 0.048126128 0.18599993 5920594
0.76460981 0.04661312 0.18599993 2960685
0.76434278 0.045155205 0.18699998 2894892
0.76407576 0.043702517 0.18799996 2566699
0.76407576 0.042194735 0.18799996 2435113
0.76407576 0.040686954 0.18799996 2631720
0.76407576 0.039179169 0.18799996 2500904
0.76407576 0.037671387 0.18799996 2566697
0.76407576 0.036163606 0.18799996 2369318
0.76407576 0.034655821 0.18799996 2435111
0.76434278 0.033072039 0.18699998 2369318
0.76460981 0.031483024 0.18599993 2369318
0.76460981 0.029970016 0.18599993 2435111
0.76460981 0.028457012 0.18599993 2501157
0.76487684 0.026857551 0.18499994 2501157
0.76487684 0.025341928 0.18499994 2501157
0.76487684 0.023826305 0.18499994 2435364
0.76487684 0.022310682 0.18499994 2435364
0.76487684 0.020795062 0.18499994 2435364
0.76487684 0.019279439 0.18499994 2501157
0.76487684 0.017763816 0.18499994 2631973
0.76487684 0.016248193 0.18499994 2566180
0.76514387 0.014625214 0.18399996 2631973
0.76487684 0.01321695 0.18499994 2566180
0.76487684 0.011701323 0.18499994 2435364
0.76487684 0.010185704 0.18499994 2369571
0.76487684 0.0086700842 0.18499994 2435364
0.76460981 0.007274881 0.18599993 2435364
0.76434278 0.0058849156 0.18699998 2501157
0.76407576 0.0045001656 0.18799996 2501157
0.76380873 0.0031206459 0.18899995 2501157
0.7635417 0.001746349 0.18999994 2501157
0.7635417 0.00024379045 0.18999994 2501157
0.76327467 -0.0011226535 0.19099998 2501157
0.76327467 -0.0026225969 0.19099998 2435364
0.76327467 -0.0041225404 0.19099998 2435364
0.76300764 -0.005478546 0.19199997 2501157
0.76300764 -0.0069758743 0.19199997 2566950
0.76300764 -0.00847321 0.19199997 2566950
0.76300764 -0.0099705383 0.19199997 2566950
0.76327467 -0.011622258 0.19099998 2566950
0.76327467 -0.013122201 0.19099998 2435364
0.76327467 -0.014622144 0.19099998 2501157
0.76327467 -0.01612208 0.19099998 2631973
0.7635417 -0.017786883 0.18999994 2631973
0.7635417 -0.019289434 0.18999994 2631973
0.7635417 -0.020791993 0.18999994 2566950
0.7635417 -0.022294551 0.18999994 2764329
0.76380873 -0.023972407 0.18899995 2764329
0.76380873 -0.025477573 0.18899995 2830122
0.76380873 -0.026982747 0.18899995 2895145
0.76380873 -0.028487913 0.18899995 2895145
0.76380873 -0.029993087 0.18899995 2895145
0.76380873 -0.031498253 0.18899995 2960938
0.76380873 -0.033003427 0.18899995 2895145
0.76380873 -0.034508593 0.18899995 2895145
0.76380873 -0.036013767 0.18899995 2960938
0.76380873 -0.037518933 0.18899995 2960938
0.76407576 -0.039225534 0.18799996 3026731
0.76407576 -0.040733315 0.18799996 3026731
0.76380873 -0.042034447 0.18899995 3158317
0.76380873 -0.043539613 0.18899995 3092524
0.76380873 -0.045044787 0.18899995 3092524
0.76380873 -0.046549954 0.18899995 2961708
0.76380873 -0.04805512 0.18899995 3159087
0.76380873 -0.049560301 0.18899995 2961708
0.76380873 -0.051065452 0.18899995 2961708
0.76407576 -0.052795567 0.18799996 3158317
0.76407576 -0.054303356 0.18799996 3158317
0.76407576 -0.055811144 0.18799996 3289903
0.76407576 -0.057318918 0.18799996 3224880
0.76407576 -0.058826707 0.18799996 3224880
0.76434278 -0.060572498 0.18699998 3750971
0.76460981 -0.062323533 0.18599993 4408125
0.76460981 -0.063836537 0.18599993 8092787
0.76309681 0.048126128 0.18599993 5920594
0.7628324 0.046665601 0.18699998 3026731
0.762568 0.045210302 0.18799996 2566699
0.76230359 0.043760225 0.18899995 2500906
0.76230359 0.042255055 0.18899995 2435111
0.76230359 0.040749885 0.18899995 2631720
0.76230359 0.039244715 0.18899995 2565927
0.76230359 0.037739545 0.18899995 2565927
0.76230359 0.036234375 0.18899995 2500134
0.76230359 0.034729205 0.18899995 2369318
0.76230359 0.033224039 0.18899995 2303525
0.762568 0.031640254 0.18799996 2303778
0.762568 0.030132473 0.18799996 2435111
0.762568 0.028624695 0.18799996 2435364
0.762568 0.02711691 0.18799996 2501157
0.762568 0.025609128 0.18799996 2501157
0.762568 0.024101343 0.18799996 2369571
0.762568 0.022593562 0.18799996 2369571
0.7628324 0.020988874 0.18699998 2369571
0.7628324 0.019478478 0.18699998 2501157
0.76309681 0.017865945 0.18599993 2631973
0.76309681 0.016352937 0.18599993 2566180
0.76309681 0.014839925 0.18599993 2631973
0.76309681 0.013326921 0.18599993 2566180
0.7628324 0.011926495 0.18699998 2566180
0.7628324 0.010416105 0.18699998 2500387
0.7628324 0.0089057088 0.18699998 2566180
0.762568 0.0075157359 0.18799996 2566180
0.762568 0.0060079545 0.18799996 2631973
0.76230359 0.0046258196 0.18899995 2501157
0.76203912 0.0032489076 0.18999994 2501157
0.76177472 0.0018772334 0.19099998 2501157
0.76151031 0.00051077455 0.19199997 2501157
0.76151031 -0.00098655373 0.19199997 2501157
0.76151031 -0.002483882 0.19199997 2435364
0.76151031 -0.0039812177 0.19199997 2369569
0.76124591 -0.0053346083 0.19299996 2501155
0.76124591 -0.0068293214 0.19299996 2566948
0.76124591 -0.008324042 0.19299996 2566948
0.76124591 -0.0098187551 0.19299996 2631973
0.76151031 -0.011467867 0.19199997 2697766
0.76151031 -0.012965195 0.19199997 2631973
0.76151031 -0.014462531 0.19199997 2631973
0.76151031 -0.015959851 0.19199997 2697766
0.76177472 -0.017622024 0.19099998 2631973
0.76177472 -0.019121967 0.19099998 2697766
0.76177472 -0.020621911 0.19099998 2895145
0.76203912 -0.022294551 0.18999994 2895145
0.76203912 -0.02379711 0.18999994 2830122
0.76203912 -0.025299661 0.18999994 2895915
0.76230359 -0.026982747 0.18899995 3092524
0.76230359 -0.028487913 0.18899995 3026731
0.76230359 -0.029993087 0.18899995 2895145
0.76230359 -0.031498253 0.18899995 3026731
0.76230359 -0.033003427 0.18899995 2960938
0.76230359 -0.034508593 0.18899995 2960938
0.76230359 -0.036013767 0.18899995 2960938
0.76203912 -0.037320122 0.18999994 3026731
0.76203912 -0.038822673 0.18999994 3158317
0.76203912 -0.040325232 0.18999994 3092524
0.76203912 -0.04182779 0.18999994 3026731
0.76203912 -0.043330349 0.18999994 3026731
0.76203912 -0.0448329 0.18999994 3092524
0.76203912 -0.046335459 0.18999994 3092524
0.76203912 -0.047838017 0.18999994 3158317
0.76203912 -0.049340568 0.18999994 3092524
0.76203912 -0.050843127 0.18999994 3158317
0.76203912 -0.052345686 0.18999994 3158317
0.76203912 -0.053848229 0.18999994 3158317
0.76203912 -0.055350788 0.18999994 3289903
0.76203912 -0.056853347 0.18999994 3159087
0.76230359 -0.058591299 0.18899995 3159087
0.762568 -0.060334481 0.18799996 3619385
0.762568 -0.06184227 0.18799996 4079419
0.762568 -0.063350059 0.18799996 4605504
0.76158381 0.049639136 0.18599993 7828845
0.76158381 0.048126128 0.18599993 5591629
0.76106018 0.046718083 0.18799996 3092267
0.76106018 0.045210302 0.18799996 2697515
0.76079839 0.043760225 0.18899995 2631722
0.76053661 0.042315379 0.18999994 2565927
0.76053661 0.04081282 0.18999994 2565927
0.76053661 0.039310262 0.18999994 2500134
0.76053661 0.037807707 0.18999994 2500134
0.76053661 0.036305148 0.18999994 2500134
0.76053661 0.034802593 0.18999994 2500134
0.76053661 0.033300035 0.18999994 2303525
0.76053661 0.03179748 0.18999994 2303778
0.76053661 0.030294921 0.18999994 2369571
0.76053661 0.02879237 0.18999994 2566180
0.76079839 0.027203362 0.18899995 2566180
0.76079839 0.025698192 0.18899995 2566180
0.76079839 0.024193022 0.18899995 2434594
0.76079839 0.022687852 0.18899995 2434594
0.76079839 0.021182682 0.18899995 2500387
0.76079839 0.019677512 0.18899995 2566180
0.76079839 0.018172342 0.18899995 2566180
0.76079839 0.016667172 0.18899995 2500387
0.76079839 0.015162002 0.18899995 2566180
0.76079839 0.013656832 0.18899995 2566180
0.76079839 0.012151659 0.18899995 2566180
0.76079839 0.0106465 0.18899995 2566180
0.76079839 0.009141326 0.18899995 2500387
0.76053661 0.0077565759 0.18999994 2697766
0.76053661 0.0062540248 0.18999994 2631973
0.76027477 0.0048771203 0.19099998 2631973
0.76001298 0.0035054386 0.19199997 2566180
0.76001298 0.0020081103 0.19199997 2631973
0.7597512 0.00064426661 0.19299996 2566180
0.7597512 -0.00085045397 0.19299996 2435364
0.7597512 -0.0023451746 0.19299996 2369571
0.75948942 -0.0036985651 0.19399995 2500385
0.75948942 -0.005190663 0.19399995 2631971
0.75948942 -0.0066827685 0.19399995 2697764
0.75948942 -0.0081748739 0.19399995 2697764
0.75948942 -0.0096669793 0.19399995 2566178
0.7597512 -0.011313476 0.19299996 2631971
0.7597512 -0.012808196 0.19299996 2631971
0.7597512 -0.014302909 0.19299996 2631971
0.7597512 -0.015797623 0.19299996 2697764
0.76001298 -0.01745718 0.19199997 2697764
0.76001298 -0.018954508 0.19199997 2631971
0.76001298 -0.020451844 0.19199997 2829350
0.76027477 -0.022121854 0.19099998 2829350
0.76027477 -0.023621798 0.19099998 2895143
0.76027477 -0.025121741 0.19099998 2960936
0.76027477 -0.026621684 0.19099998 3026731
0.76027477 -0.028121628 0.19099998 2960938
0.76027477 -0.029621571 0.19099998 2960938
0.76027477 -0.031121515 0.19099998 3026731
0.76027477 -0.032621458 0.19099998 3026731
0.76027477 -0.034121402 0.19099998 2960938
0.76027477 -0.035621345 0.19099998 2960938
0.76027477 -0.037121288 0.19099998 3026731
0.76027477 -0.038621239 0.19099998 3158317
0.76027477 -0.040121183 0.19099998 3092524
0.76027477 -0.041621126 0.19099998 2960938
0.76027477 -0.04312107 0.19099998 2960938
0.76001298 -0.044409126 0.19199997 3092524
0.76001298 -0.045906462 0.19199997 3092524
0.76001298 -0.04740379 0.19199997 3158317
0.76001298 -0.048901118 0.19199997 3092524
0.76001298 -0.050398447 0.19199997 3158317
0.76001298 -0.051895775 0.19199997 3092524
0.76001298 -0.053393103 0.19199997 3158317
0.76001298 -0.054890431 0.19199997 3289903
0.76027477 -0.056620546 0.19099998 3159087
0.76027477 -0.058120497 0.19099998 3027501
0.76053661 -0.059858464 0.18999994 3619385
0.76079839 -0.061601646 0.18899995 4013373
0.76079839 -0.063106813 0.18899995 4408127
0.7600708 0.049639136 0.18599993 7368292
0.75981158 0.048175998 0.18699998 4933953
0.75955242 0.046718083 0.18799996 3092267
0.7592932 0.045265395 0.18899995 2894894
0.75903404 0.04381793 0.18999994 2829101
0.75877482 0.042375702 0.19099998 2894892
0.75877482 0.040875759 0.19099998 2631720
0.75851566 0.039441362 0.19199997 2500134
0.75851566 0.03794403 0.19199997 2500134
0.75851566 0.036446698 0.19199997 2500134
0.75851566 0.03494937 0.19199997 2434341
0.75851566 0.033452038 0.19199997 2434594
0.75851566 0.031954709 0.19199997 2434594
0.75851566 0.030457377 0.19199997 2500387
0.75851566 0.028960053 0.19199997 2566180
0.75851566 0.027462721 0.19199997 2500387
0.75851566 0.025965389 0.19199997 2500387
0.75877482 0.024376381 0.19099998 2434594
0.75877482 0.022876438 0.19099998 2434594
0.75877482 0.021376494 0.19099998 2500387
0.75877482 0.019876551 0.19099998 2566180
0.75877482 0.018376607 0.19099998 2566180
0.75877482 0.016876664 0.19099998 2500387
0.75877482 0.015376721 0.19099998 2566180
0.75877482 0.013876773 0.19099998 2500387
0.75877482 0.01237683 0.19099998 2566180
0.75877482 0.010876894 0.19099998 2566180
0.75877482 0.0093769506 0.19099998 2566180
0.75851566 0.0079974309 0.19199997 2697766
0.75851566 0.0065000951 0.19199997 2631973
0.75825644 0.0051284134 0.19299996 2566180
0.75825644 0.0036337003 0.19299996 2566180
0.75799727 0.0022698566 0.19399995 2631973
0.75773811 0.00091123581 0.19499993 2566180
0.75773811 -0.00057825446 0.19499993 2566180
0.75773811 -0.0020677447 0.19499993 2369571
0.75773811 -0.003557235 0.19499993 2500387
0.75773811 -0.0050467253 0.19499993 2631971
0.75773811 -0.0065362155 0.19499993 2697764
0.75773811 -0.0080257058 0.19499993 2697764
0.75773811 -0.0095151961 0.19499993 2631971
0.75773811 -0.011004694 0.19499993 2631971
0.75773811 -0.012494184 0.19499993 2566178
0.75773811 -0.013983674 0.19499993 2631971
0.75799727 -0.015635386 0.19399995 2697764
0.75799727 -0.017127492 0.19399995 2631971
0.75825644 -0.018787056 0.19299996 2631971
0.75825644 -0.020281769 0.19299996 2631971
0.75825644 -0.02177649 0.19299996 2631971
0.75851566 -0.0234465 0.19199997 2895143
0.75851566 -0.024943836 0.19199997 2895143
0.75851566 -0.026441164 0.19199997 2960936
0.75851566 -0.027938493 0.19199997 2960936
0.75851566 -0.029435828 0.19199997 2960936
0.75851566 -0.030933157 0.19199997 2960936
0.75851566 -0.032430485 0.19199997 3026729
0.75851566 -0.033927813 0.19199997 2960936
0.75851566 -0.035425149 0.19199997 2960936
0.75851566 -0.036922477 0.19199997 3026729
0.75851566 -0.038419805 0.19199997 3092524
0.75825644 -0.0397131 0.19299996 3092524
0.75825644 -0.041207813 0.19299996 2960938
0.75825644 -0.042702533 0.19299996 2960938
0.75825644 -0.044197246 0.19299996 3026731
0.75825644 -0.045691967 0.19299996 3026731
0.75825644 -0.04718668 0.19299996 3092524
0.75799727 -0.048461683 0.19399995 3092524
0.75799727 -0.049953781 0.19399995 3092524
0.75799727 -0.051445879 0.19399995 3092524
0.75799727 -0.052937992 0.19399995 3158317
0.75799727 -0.05443009 0.19399995 3158317
0.75825644 -0.056154974 0.19299996 3027501
0.75851566 -0.057885088 0.19199997 3027501
0.75877482 -0.059620433 0.19099998 3422259
0.75877482 -0.061120383 0.19099998 3948350
0.75903404 -0.062863581 0.18999994 4407874
0.7585578 0.049639136 0.18599993 6842718
0.7580446 0.048225865 0.18799996 4604986
0.75778806 0.046770565 0.18899995 3092267
0.75753146 0.045320489 0.18999994 2894635
0.75727487 0.043875642 0.19099998 2894635
0.75701833 0.042436022 0.19199997 2894892
0.75701833 0.04093869 0.19199997 2631973
0.75676173 0.039506909 0.19299996 2434594
0.75676173 0.038012188 0.19299996 2500387
0.75676173 0.036517471 0.19299996 2500387
0.75676173 0.035022754 0.19299996 2434594
0.75676173 0.033528037 0.19299996 2434594
0.75676173 0.032033321 0.19299996 2434594
0.75650519 0.030619826 0.19399995 2500387
0.75650519 0.029127728 0.19399995 2500387
0.75650519 0.027635623 0.19399995 2500387
0.75650519 0.026143517 0.19399995 2500387
0.75650519 0.024651416 0.19399995 2434594
0.75650519 0.02315931 0.19399995 2434594
0.75650519 0.021667205 0.19399995 2434594
0.75650519 0.020175103 0.19399995 2500387
0.75650519 0.018682998 0.19399995 2500387
0.75676173 0.017086152 0.19299996 2500387
0.75676173 0.015591431 0.19299996 2566180
0.75676173 0.014096715 0.19299996 2500387
0.75676173 0.012602001 0.19299996 2566180
0.75676173 0.011107288 0.19299996 2566180
0.75676173 0.0096125677 0.19299996 2566180
0.75650519 0.0082382709 0.19399995 2631973
0.75650519 0.0067461655 0.19399995 2566180
0.75624859 0.0053797141 0.19499993 2500387
0.75624859 0.0038902238 0.19499993 2566180
0.755992 0.0025316104 0.19599998 2631973
0.755992 0.0010447353 0.19599998 2566180
0.755992 -0.00044214725 0.19599998 2631973
0.755992 -0.0019290224 0.19599998 2500387
0.75573546 -0.0032745749 0.19699997 2566180
0.75573546 -0.0047588348 0.19699997 2631973
0.75573546 -0.0062431023 0.19699997 2631973
0.75573546 -0.0077273697 0.19699997 2697766
0.75573546 -0.0092116296 0.19699997 2631973
0.755992 -0.010850288 0.19599998 2631971
0.755992 -0.012337171 0.19599998 2631971
0.755992 -0.013824046 0.19599998 2631971
0.755992 -0.015310913 0.19599998 2631971
0.75624859 -0.016962647 0.19499993 2631971
0.75624859 -0.018452138 0.19499993 2566178
0.75624859 -0.019941628 0.19499993 2631971
0.75650519 -0.021603808 0.19399995 2697764
0.75650519 -0.023095906 0.19399995 2697764
0.75676173 -0.024765924 0.19299996 2829350
0.75676173 -0.026260637 0.19299996 2960936
0.75676173 -0.027755357 0.19299996 2895143
0.75676173 -0.029250078 0.19299996 2895143
0.75676173 -0.030744791 0.19299996 2960936
0.75676173 -0.032239512 0.19299996 2960936
0.75676173 -0.033734225 0.19299996 2895143
0.75650519 -0.035032742 0.19399995 2960936
0.75650519 -0.036524847 0.19399995 2960936
0.75624859 -0.037815526 0.19499993 3026729
0.75624859 -0.039305016 0.19499993 3026729
0.75624859 -0.040794507 0.19499993 2960936
0.75624859 -0.042283997 0.19499993 3026731
0.75624859 -0.043773487 0.19499993 2960938
0.75624859 -0.045262977 0.19499993 3026731
0.75624859 -0.046752468 0.19499993 3092524
0.755992 -0.048022233 0.19599998 3092524
0.755992 -0.049509101 0.19599998 3092524
0.755992 -0.050995968 0.19599998 3092524
0.755992 -0.052482851 0.19599998 3158317
0.755992 -0.053969733 0.19599998 3158317
0.75624859 -0.055689402 0.19499993 3027501
0.75650519 -0.057414301 0.19399995 3027501
0.75676173 -0.059144415 0.19299996 3356466
0.75701833 -0.060879759 0.19199997 3948350
0.75727487 -0.062620319 0.19099998 4473924
0.75704479 0.049639136 0.18599993 6184793
0.75653684 0.048225865 0.18799996 4539965
0.75628287 0.046770565 0.18899995 3158058
0.75602889 0.045320489 0.18999994 2763302
0.755521 0.043933351 0.19199997 2697509
0.75526702 0.042496342 0.19299996 2763302
0.75526702 0.041001625 0.19299996 2566180
0.75501305 0.039572455 0.19399995 2434594
0.75475907 0.038148507 0.19499993 2500387
0.75475907 0.036659017 0.19499993 2500387
0.75475907 0.035169527 0.19499993 2434594
0.75475907 0.033680037 0.19499993 2434594
0.75475907 0.032190543 0.19499993 2500387
0.75450516 0.030782282 0.19599998 2434594
0.75450516 0.029295411 0.19599998 2500387
0.75450516 0.027808532 0.19599998 2434594
0.75450516 0.026321653 0.19599998 2434594
0.75450516 0.024834774 0.19599998 2368801
0.75450516 0.023347899 0.19599998 2434594
0.75450516 0.02186102 0.19599998 2434594
0.75450516 0.020374142 0.19599998 2434594
0.75450516 0.018887263 0.19599998 2434594
0.75450516 0.017400388 0.19599998 2500387
0.75450516 0.015913509 0.19599998 2500387
0.75450516 0.014426634 0.19599998 2500387
0.75450516 0.012939751 0.19599998 2500387
0.75450516 0.011452876 0.19599998 2500387
0.75450516 0.0099660009 0.19599998 2566180
0.75450516 0.0084791258 0.19599998 2500387
0.75450516 0.0069922432 0.19599998 2434594
0.75450516 0.0055053681 0.19599998 2500387
0.75425118 0.0041467473 0.19699997 2566180
0.75425118 0.0026624873 0.19699997 2566180
0.75399721 0.001311712 0.19799995 2501157
0.75399721 -0.00016994029 0.19799995 2435364
0.75425118 -0.0017903075 0.19699997 2435364
0.75399721 -0.0031332448 0.19799995 2566180
0.75399721 -0.0046148971 0.19799995 2631973
0.75399721 -0.0060965493 0.19799995 2631973
0.75399721 -0.0075782016 0.19799995 2697766
0.75399721 -0.0090598539 0.19799995 2631973
0.75399721 -0.010541506 0.19799995 2631973
0.75399721 -0.012023158 0.19799995 2631971
0.75425118 -0.013664424 0.19699997 2631971
0.75425118 -0.015148684 0.19699997 2631971
0.75425118 -0.016632944 0.19699997 2631971
0.75450516 -0.018284671 0.19599998 2566178
0.75450516 -0.019771546 0.19599998 2631971
0.75450516 -0.021258429 0.19599998 2697764
0.75475907 -0.022920609 0.19499993 2697764
0.75475907 -0.024410106 0.19499993 2829350
0.75475907 -0.025899597 0.19499993 2895143
0.75475907 -0.027389087 0.19499993 2960679
0.75475907 -0.028878577 0.19499993 2960679
0.75475907 -0.030368067 0.19499993 2960679
0.75475907 -0.031857558 0.19499993 2895143
0.75475907 -0.033347048 0.19499993 2895143
0.75450516 -0.034640327 0.19599998 2960936
0.75450516 -0.036127202 0.19599998 2960936
0.75450516 -0.037614085 0.19599998 2960936
0.75450516 -0.03910096 0.19599998 3026729
0.75425118 -0.040381186 0.19699997 2960938
0.75425118 -0.041865446 0.19699997 2960938
0.75425118 -0.043349713 0.19699997 2960938
0.75425118 -0.044833981 0.19699997 3092524
0.75425118 -0.04631824 0.19699997 3092524
0.75399721 -0.04758279 0.19799995 3092524
0.75399721 -0.049064435 0.19799995 3092524
0.75399721 -0.050546087 0.19799995 3026731
0.75399721 -0.05202774 0.19799995 3092524
0.75399721 -0.053509392 0.19799995 3092524
0.75425118 -0.05522383 0.19699997 3158317
0.75450516 -0.056943484 0.19599998 3027501
0.75475907 -0.058668397 0.19499993 3224880
0.75526702 -0.060639136 0.19299996 3751224
0.755521 -0.062377088 0.19199997 4210752
0.75502908 0.048225865 0.18799996 4803137
0.75452638 0.046823047 0.18999994 3355437
0.75427502 0.045375586 0.19099998 2697509
0.75402367 0.043933351 0.19199997 2697509
0.75352097 0.042556662 0.19399995 2631973
0.75326961 0.041127492 0.19499993 2434594
0.75326961 0.039638001 0.19499993 2434594
0.75301826 0.038216673 0.19599998 2434594
0.75301826 0.036729794 0.19599998 2500387
0.75301826 0.035242915 0.19599998 2434594
0.75276691 0.033832036 0.19699997 2434594
0.75276691 0.032347772 0.19699997 2500387
0.75276691 0.030863509 0.19699997 2434594
0.75251555 0.029463086 0.19799995 2500387
0.75251555 0.027981434 0.19799995 2434594
0.75251555 0.026499782 0.19799995 2368801
0.75251555 0.025018129 0.19799995 2368801
0.75251555 0.023536481 0.19799995 2368801
0.75251555 0.022054829 0.19799995 2434594
0.75251555 0.020573176 0.19799995 2500387
0.75251555 0.019091524 0.19799995 2500387
0.75251555 0.017609872 0.19799995 2500387
0.75251555 0.01612822 0.19799995 2500387
0.75251555 0.014646567 0.19799995 2500387
0.75251555 0.013164915 0.19799995 2500387
0.75251555 0.01168327 0.19799995 2500387
0.75251555 0.010201618 0.19799995 2566180
0.75251555 0.0087199658 0.19799995 2500387
0.75251555 0.0072383136 0.19799995 2434594
0.75251555 0.0057566613 0.19799995 2434594
0.75251555 0.004275009 0.19799995 2500387
0.7522642 0.0029242337 0.19899994 2500387
0.7522642 0.0014451966 0.19899994 2435364
0.7522642 -3.3840537e-05 0.19899994 2435364
0.7522642 -0.0015128851 0.19899994 2501157
0.7522642 -0.0029919222 0.19899994 2303778
0.7522642 -0.0044709593 0.19899994 2435364
0.7522642 -0.0059499964 0.19899994 2566950
0.7522642 -0.0074290335 0.19899994 2501157
0.7522642 -0.0089080706 0.19899994 2566180
0.7522642 -0.010387115 0.19899994 2631716
0.7522642 -0.011866152 0.19899994 2566180
0.7522642 -0.013345189 0.19899994 2566180
0.75251555 -0.014986448 0.19799995 2566180
0.75251555 -0.0164681 0.19799995 2566178
0.75251555 -0.017949753 0.19799995 2566178
0.75276691 -0.019601479 0.19699997 2566178
0.75276691 -0.021085739 0.19699997 2631971
0.75276691 -0.022570007 0.19699997 2500385
0.75301826 -0.024232179 0.19599998 2631971
0.75301826 -0.025719061 0.19599998 2697766
0.75301826 -0.027205937 0.19599998 2829352
0.75301826 -0.028692819 0.19599998 2829352
0.75276691 -0.029991329 0.19699997 2829352
0.75276691 -0.031475596 0.19699997 2895145
0.75276691 -0.032959864 0.19699997 2829352
0.75276691 -0.034444124 0.19699997 2895145
0.75276691 -0.035928391 0.19699997 2895145
0.75251555 -0.037211224 0.19799995 2829352
0.75251555 -0.038692877 0.19799995 2960938
0.75251555 -0.040174529 0.19799995 2895145
0.75251555 -0.041656181 0.19799995 2960938
0.7522642 -0.042925954 0.19899994 2960938
0.7522642 -0.044404991 0.19899994 3026731
0.7522642 -0.045884028 0.19899994 3026731
0.7522642 -0.047363065 0.19899994 3092524
0.7522642 -0.048842095 0.19899994 3026731
0.7522642 -0.050321139 0.19899994 2960938
0.7522642 -0.051800169 0.19899994 3026731
0.7522642 -0.053279214 0.19899994 3026731
0.75251555 -0.054991044 0.19799995 3092524
0.75276691 -0.05670809 0.19699997 3092524
0.75301826 -0.058430366 0.19599998 3289903
0.75352097 -0.060398512 0.19399995 3816247
0.75377232 -0.062133856 0.19299996 4079166
0.75327253 0.048275735 0.18899995 4803137
0.75277507 0.046875529 0.19099998 3355437
0.75252634 0.045430679 0.19199997 2697509
0.75227761 0.043991055 0.19299996 2697509
0.75178015 0.042616982 0.19499993 2566180
0.75153136 0.041190427 0.19599998 2434594
0.75128263 0.039769098 0.19699997 2434594
0.75128263 0.038284831 0.19699997 2434594
0.7510339 0.03687134 0.19799995 2434594
0.7510339 0.035389688 0.19799995 2368801
0.7510339 0.033908036 0.19799995 2434594
0.75078517 0.032504998 0.19899994 2434594
0.75078517 0.031025957 0.19899994 2434594
0.75078517 0.029546924 0.19899994 2434594
0.75053644 0.028154343 0.19999999 2368801
0.75053644 0.026677918 0.19999999 2368801
0.75053644 0.025201492 0.19999999 2434594
0.75053644 0.023725066 0.19999999 2434594
0.75053644 0.022248641 0.19999999 2434594
0.75053644 0.020772215 0.19999999 2434594
0.75053644 0.019295789 0.19999999 2500387
0.75053644 0.017819364 0.19999999 2434594
0.75053644 0.016342938 0.19999999 2368801
0.75053644 0.014866516 0.19999999 2368801
0.75053644 0.013390087 0.19999999 2434594
0.75053644 0.011913665 0.19999999 2434594
0.75053644 0.010437243 0.19999999 2500387
0.75078517 0.0088403895 0.19899994 2434594
0.75078517 0.0073613524 0.19899994 2434594
0.75053644 0.0060079694 0.19999999 2368801
0.75053644 0.00453154 0.19999999 2434594
0.75053644 0.003055118 0.19999999 2434594
0.75053644 0.0015786886 0.19999999 2500387
0.75053644 0.00010226667 0.19999999 2500387
0.75053644 -0.0013741627 0.19999999 2500387
0.75053644 -0.0028505847 0.19999999 2368801
0.75028765 -0.0041830689 0.20099998 2434594
0.75028765 -0.0056568831 0.20099998 2631973
0.75028765 -0.0071306974 0.20099998 2500387
0.75053644 -0.0087562874 0.19999999 2566180
0.75053644 -0.010232709 0.19999999 2500387
0.75053644 -0.011709139 0.19999999 2500387
0.75053644 -0.013185561 0.19999999 2566180
0.75078517 -0.014824219 0.19899994 2566180
0.75078517 -0.016303256 0.19899994 2500387
0.75078517 -0.017782301 0.19899994 2500385
0.7510339 -0.019431405 0.19799995 2500385
0.7510339 -0.020913057 0.19799995 2631971
0.7510339 -0.022394709 0.19799995 2434592
0.7510339 -0.023876362 0.19799995 2566178
0.7510339 -0.025358014 0.19799995 2697764
0.7510339 -0.026839666 0.19799995 2697764
0.7510339 -0.028321318 0.19799995 2697764
0.7510339 -0.029802971 0.19799995 2697764
0.7510339 -0.031284623 0.19799995 2829350
0.7510339 -0.032766275 0.19799995 2829350
0.7510339 -0.03424792 0.19799995 2895143
0.75078517 -0.035530761 0.19899994 2895143
0.75078517 -0.037009798 0.19899994 2829350
0.75053644 -0.038284786 0.19999999 2829350
0.75053644 -0.039761208 0.19999999 2895143
0.75053644 -0.041237637 0.19999999 2895143
0.75053644 -0.042714059 0.19999999 2895143
0.75053644 -0.044190481 0.19999999 2960938
0.75028765 -0.045449801 0.20099998 2960938
0.75028765 -0.046923615 0.20099998 3026731
0.75028765 -0.048397414 0.20099998 3026731
0.75028765 -0.049871229 0.20099998 2960938
0.75028765 -0.051345043 0.20099998 2895145
0.75028765 -0.052818857 0.20099998 2960938
0.75078517 -0.054758258 0.19899994 3092524
0.7510339 -0.056472696 0.19799995 3026731
0.75128263 -0.05819235 0.19699997 3289903
0.75153136 -0.059917249 0.19599998 3618868
0.75202882 -0.06189061 0.19399995 4013373
0.75227761 -0.063628562 0.19299996 4275771
0.75127512 0.046875529 0.19099998 3355437
0.75078285 0.045485776 0.19299996 2697509
0.75029063 0.044106472 0.19499993 2631716
0.75004447 0.042677306 0.19599998 2565923
0.74979836 0.041253362 0.19699997 2434594
0.74955225 0.039834645 0.19799995 2434594
0.74955225 0.038352992 0.19799995 2434594
0.74930614 0.036942113 0.19899994 2368801
0.74930614 0.035463072 0.19899994 2368801
0.74906003 0.034060039 0.19999999 2434594
0.74906003 0.032583613 0.19999999 2434594
0.74881387 0.031188414 0.20099998 2368801
0.74881387 0.029714607 0.20099998 2368801
0.74881387 0.028240792 0.20099998 2237215
0.74881387 0.026766982 0.20099998 2237215
0.74881387 0.025293168 0.20099998 2368801
0.74881387 0.023819357 0.20099998 2368801
0.74881387 0.022345543 0.20099998 2434594
0.74881387 0.020871732 0.20099998 2434594
0.74881387 0.019397922 0.20099998 2434594
0.74881387 0.017924108 0.20099998 2368801
0.74881387 0.016450297 0.20099998 2368801
0.74881387 0.014976483 0.20099998 2368801
0.74881387 0.013502672 0.20099998 2434594
0.74881387 0.012028866 0.20099998 2434594
0.74881387 0.010555051 0.20099998 2434594
0.74881387 0.009081237 0.20099998 2434594
0.74881387 0.0076074302 0.20099998 2434594
0.74881387 0.006133616 0.20099998 2368801
0.74881387 0.0046598017 0.20099998 2434594
0.74881387 0.0031859875 0.20099998 2434594
0.74881387 0.0017121807 0.20099998 2434594
0.74881387 0.00023836643 0.20099998 2500387
0.74881387 -0.0012354478 0.20099998 2500387
0.74881387 -0.0027092621 0.20099998 2368801
0.74881387 -0.0041830689 0.20099998 2434594
0.74856776 -0.0055103302 0.20199996 2566180
0.74856776 -0.0069815293 0.20199996 2500387
0.74881387 -0.0086045042 0.20099998 2566180
0.74881387 -0.010078318 0.20099998 2500387
0.74881387 -0.011552133 0.20099998 2434594
0.74881387 -0.013025947 0.20099998 2566180
0.74906003 -0.014661983 0.19999999 2500387
0.74906003 -0.016138405 0.19999999 2500385
0.74906003 -0.017614827 0.19999999 2500385
0.74906003 -0.019091256 0.19999999 2500385
0.74930614 -0.020740375 0.19899994 2631971
0.74930614 -0.022219412 0.19899994 2434592
0.74930614 -0.023698449 0.19899994 2631971
0.74930614 -0.025177494 0.19899994 2631971
0.74930614 -0.026656531 0.19899994 2631971
0.74930614 -0.028135568 0.19899994 2631971
0.74930614 -0.029614605 0.19899994 2697764
0.74906003 -0.030902654 0.19999999 2697764
0.74906003 -0.032379083 0.19999999 2697764
0.74906003 -0.033855505 0.19999999 2894886
0.74906003 -0.035331935 0.19999999 2894886
0.74906003 -0.036808357 0.19999999 2894886
0.74881387 -0.038080744 0.20099998 2829350
0.74881387 -0.039554551 0.20099998 2829350
0.74881387 -0.041028365 0.20099998 2895143
0.74856776 -0.0422903 0.20199996 2829350
0.74856776 -0.043761499 0.20199996 2960938
0.74856776 -0.045232698 0.20199996 3026731
0.74856776 -0.046703897 0.20199996 3026731
0.74856776 -0.048175089 0.20199996 3026731
0.74856776 -0.049646281 0.20199996 3026731
0.74856776 -0.051117487 0.20199996 2566180
0.74856776 -0.052588679 0.20199996 3026478
0.74906003 -0.054525457 0.19999999 3092524
0.74930614 -0.056237288 0.19899994 3092524
0.74955225 -0.057954349 0.19799995 3289903
0.74979836 -0.059676625 0.19699997 3487282
0.75029063 -0.061647378 0.19499993 3816247
0.75078285 -0.063628562 0.19299996 4342334
0.74977517 0.048375472 0.19099998 2302233
0.74928814 0.046980493 0.19299996 3223851
0.74880111 0.045595963 0.19499993 2763302
0.74855763 0.044164181 0.19599998 2631716
0.7480706 0.042797945 0.19799995 2565923
0.7480706 0.041316293 0.19799995 2434594
0.74782711 0.039900191 0.19899994 2434594
0.74758357 0.038489316 0.19999999 2368801
0.74758357 0.03701289 0.19999999 2368801
0.74734008 0.035609849 0.20099998 2368801
0.74709654 0.034212038 0.20199996 2368801
0.74709654 0.032740839 0.20199996 2368801
0.74709654 0.03126964 0.20199996 2368801
0.74709654 0.029798444 0.20199996 2368801
0.74709654 0.028327245 0.20199996 2237215
0.74709654 0.026856046 0.20199996 2237215
0.74709654 0.025384847 0.20199996 2368801
0.74709654 0.023913648 0.20199996 2368801
0.74685305 0.022539351 0.20299995 2434594
0.74709654 0.02097125 0.20199996 2434594
0.74709654 0.019500051 0.20199996 2039836
0.74709654 0.018028852 0.20199996 2105629
0.74709654 0.016557653 0.20199996 2368801
0.74709654 0.015086453 0.20199996 2368801
0.74709654 0.013615251 0.20199996 2368801
0.74709654 0.012144059 0.20199996 2368801
0.74709654 0.01067286 0.20199996 2434594
0.74709654 0.0092016608 0.20199996 2368801
0.74709654 0.0077304617 0.20199996 2368801
0.74709654 0.0062592626 0.20199996 2237215
0.74709654 0.0047880635 0.20199996 2368801
0.74709654 0.0033168644 0.20199996 2368801
0.74709654 0.0018456653 0.20199996 2434594
0.74709654 0.00037446618 0.20199996 2434594
0.74709654 -0.0010967329 0.20199996 2434594
0.74709654 -0.002567932 0.20199996 2368801
0.74709654 -0.0040391311 0.20199996 2434594
0.74709654 -0.0055103302 0.20199996 2566180
0.74685305 -0.0068323612 0.20299995 2500387
0.74709654 -0.0084527284 0.20199996 2565923
0.74709654 -0.0099239275 0.20199996 2565923
0.74709654 -0.011395127 0.20199996 2500387
0.74709654 -0.012866326 0.20199996 2566180
0.74734008 -0.014499746 0.20099998 2500387
0.74734008 -0.015973561 0.20099998 2500385
0.74734008 -0.017447375 0.20099998 2566178
0.74734008 -0.018921182 0.20099998 2566178
0.74758357 -0.020567678 0.19999999 2631971
0.74758357 -0.022044107 0.19999999 2631971
0.74758357 -0.023520529 0.19999999 2631971
0.74758357 -0.024996959 0.19999999 2631971
0.74758357 -0.026473381 0.19999999 2631971
0.74758357 -0.02794981 0.19999999 2631971
0.74758357 -0.029426232 0.19999999 2566950
0.74734008 -0.030711681 0.20099998 2829352
0.74734008 -0.032185495 0.20099998 2697766
0.74734008 -0.033659309 0.20099998 2894888
0.74734008 -0.035133116 0.20099998 2763300
0.74709654 -0.036405504 0.20199996 2697764
0.74709654 -0.037876703 0.20199996 2829350
0.74709654 -0.039347902 0.20199996 2829350
0.74709654 -0.040819101 0.20199996 2895143
0.74685305 -0.042078421 0.20299995 2829350
0.74685305 -0.043547004 0.20299995 2895145
0.74685305 -0.045015588 0.20299995 2960938
0.74685305 -0.046484172 0.20299995 3026731
0.74685305 -0.047952756 0.20299995 3026731
0.74685305 -0.049421333 0.20299995 3026731
0.74685305 -0.050889932 0.20299995 2631973
0.74685305 -0.052358516 0.20299995 3026478
0.74734008 -0.054292671 0.20099998 3026731
0.74758357 -0.056001879 0.19999999 3092524
0.7480706 -0.057954349 0.19799995 3289903
0.74831414 -0.059676625 0.19699997 3487282
0.74855763 -0.061404116 0.19599998 3750454
0.74904466 -0.063382722 0.19399995 4276541
0.74803436 0.048425339 0.19199997 2367513
0.74755251 0.047032975 0.19399995 3158058
0.74707073 0.04565106 0.19599998 2697766
0.74682987 0.044221889 0.19699997 2631973
0.74634802 0.042858265 0.19899994 2500387
0.74610716 0.041442167 0.19999999 2434594
0.74586624 0.040031288 0.20099998 2434594
0.74586624 0.038557474 0.20099998 2368801
0.74562538 0.037154436 0.20199996 2368801
0.74562538 0.035683237 0.20199996 2368801
0.74538445 0.034288038 0.20299995 2434594
0.74538445 0.03281945 0.20299995 2434594
0.74538445 0.031350862 0.20299995 2237215
0.74538445 0.029882282 0.20299995 2368801
0.74538445 0.028413694 0.20299995 2171422
0.74538445 0.02694511 0.20299995 2237215
0.74538445 0.025476523 0.20299995 2237215
0.74538445 0.024007939 0.20299995 2368801
0.74514353 0.022636257 0.20399994 2368801
0.74538445 0.021070767 0.20299995 2368801
